# .PCD v0.7 - Point Cloud Data file format
VERSION 0.7
FIELDS x y z
SIZE 4 4 4
TYPE F F F
COUNT 1 1 1
WIDTH 1218
HEIGHT 1
VIEWPOINT 0 0 0 1 0 0 0
POINTS 1218
DATA ascii
-0.02740996 0.0171101 0.0005245544
0.013929163 0.028131492 0.023873953
0.033957668 0.125 -0.01031981
0.00063126162 0.125 -0.03876403
-0.031077899 -0.097279295 -0.014811489
0.020139942 0.02206357 -0.013116594
-0.014085946 0.03097949 -0.023602398
-0.013976035 -0.057168804 -0.02379276
0.052757025 0.10615615 0.01521519
-0.0077023804 0.07978408 -0.026270438
0.019509263 0.087976947 -0.01900894
-0.017320195 0.099999994 0.050278977
-0.032721706 0.099999994 0.021149756
-0.017844442 0.09927208 -0.021892495
0.010324821 0.008412662 -0.023999982
-0.036918934 0.1232857 0.040415276
-0.021419724 -0.047391921 -0.010899913
-0.011679371 -0.023441711 -0.023999983
0.024539653 -0.001525461 0.0054960391
-0.018611284 -0.073766157 0.015764311
0.035138845 0.125 -0.018409224
0.031277522 -0.079961143 -0.014265246
0.049264956 0.1 0.012595527
0.0041681025 0.026521631 -0.023999983
-0.021962367 0.078338847 0.01276669
0.029122673 0.11555645 -0.046345163
-0.012725824 0.012590566 0.023999978
0.012791534 -0.099999994 0.016046567
0.030629259 -0.099999994 0.013263962
0.048784744 0.099999994 0.0043490715
-0.037676599 0.125 -0.036734514
-0.027951952 0.099999994 -0.038123239
-0.026025891 0.0089019537 0.0029218299
-0.045770675 0.1203408 -0.030046526
0.019047728 -0.016095106 -0.015008367
0.015296606 0.11718983 0.052636694
0.024438152 -0.095616676 -0.026311874
0.014150965 0.099999994 -0.03463329
-0.023139205 -0.094844155 0.028561708
0.019388735 -0.047289833 0.014417697
0.0026356364 0.011844362 -0.023999982
-0.021021852 0.08510229 -0.016389059
-0.010931247 -0.0058668042 -0.023999985
0.042389497 0.125 0.017333159
-0.0059670438 -0.099999994 -0.020264216
0.020541202 0.099999987 0.00096047577
-0.039244808 -0.093243748 -0.00066598319
0.021764107 -0.07779707 0.019576412
-0.021574184 -0.072419368 -0.010632381
0.024287084 0.125 0.033588436
0.026991419 0.083248049 0.0060494458
0.017184773 -0.077042788 -0.023615997
0.047116801 0.11686809 0.027881783
-0.024389537 0.018029749 -0.0057560457
-0.0054536629 0.039022736 0.02399998
-0.0084710401 0.11010521 0.054077562
0.030750705 -0.087646671 0.015378213
-0.022347922 0.038175903 0.0092922635
-0.023419855 -0.076162435 0.0082739685
-0.017855586 -0.099999994 -0.033469297
0.049929123 0.11118422 -0.022428803
0.011200393 0.065558709 0.023999985
0.01458051 -0.088668451 0.034319997
0.013951757 0.125 -0.0059939879
-0.035065148 0.11395541 -0.042210303
-0.0010979045 -0.025894947 0.023999983
0.029391009 0.125 0.0086516431
0.0019898517 -0.099999994 0.032335933
-0.021390054 -0.03177081 -0.010951305
0.030959532 0.10664321 -0.045202937
0.029279193 -0.081621528 0.017926948
0.021484394 0.014868089 0.010787906
0.0088081043 0.047955785 -0.023999982
0.024776716 -0.0081858933 -0.0050854688
-0.054057185 0.12362695 -0.008594485
-0.009554781 -0.099999994 -0.032325603
-0.049302526 0.11591363 0.02381175
0.018165369 0.099999994 -0.01726385
-0.024817001 -0.08410684 0.025655683
-0.028778344 -0.077224992 0.0044755256
-0.019530633 -0.051965483 -0.014171919
0.0043937527 -0.095670626 -0.034319989
-0.023259001 0.0058003142 0.0077142264
0.015809786 0.125 -0.032594584
-0.054459151 0.10582864 0.0074804947
0.020862866 -0.038900539 0.011864424
0.028681252 0.125 -0.045619585
-0.030101333 0.12415391 -0.045767318
0.013118692 0.058412984 0.023999985
-0.0022564698 -0.07997591 -0.034257844
0.021360135 0.125 0.025562961
0.047008481 0.10517579 -0.02836927
-0.018547282 -0.065333419 0.015875163
0.01134299 -0.1 0.022180244
-0.017376648 -0.013938308 0.017902762
0.021186046 0.125 -0.048380919
-0.0013647769 -0.01862039 0.023999983
-0.021189554 0.084663689 0.016098596
0.028570402 -0.1 -0.0060573025
0.035433028 0.099999994 -0.022117738
0.018245153 0.062653877 0.016398432
-0.0057867765 0.021357156 0.02399998
0.030441366 0.099999987 -0.033806391
-0.022625173 0.053892564 -0.0088120215
-0.0070724096 -0.010807647 0.023999982
-0.022244148 -0.04100085 -0.0094719678
-0.019053085 0.032332048 -0.014999064
0.00049822964 -0.021341532 -0.023999982
-0.017671013 -0.043262869 0.017392905
0.025289388 0.095224388 -0.008997472
-0.041239042 0.099999994 0.027485093
-0.0098833991 0.06369976 -0.023999989
-0.0021026842 -0.099999994 0.025926668
0.00070100185 0.08213973 -0.026399989
0.024425451 0.099999994 0.027386382
-0.0089696012 0.1170826 0.053995244
-0.018123649 -0.038066592 -0.016608885
-0.018609839 0.023395889 -0.015766786
-0.01602632 -0.099999994 -0.01220954
-0.042108528 0.11979544 -0.035111088
0.0073171277 0.125 -0.013794115
-0.021228317 0.06099353 0.011231471
0.023232486 0.072033264 0.007760115
0.0054770629 0.099999994 0.018235546
0.0037811222 -0.063683338 -0.02399998
0.018795229 -0.018785743 0.015445677
0.023932157 0.098651059 0.011348246
-0.0052054096 0.04786972 0.02399998
-0.022644592 0.077741191 -0.01086784
0.030239198 -0.094210133 0.016264167
0.00053513236 0.037175007 0.02399998
-0.010106076 -9.0903843e-05 0.023999982
-0.031243939 -0.0790665 -0.0097070662
0.04545027 0.099999994 0.019685682
-0.00089255255 0.026589457 0.023999982
-0.019869227 -0.024461186 0.013585489
0.015725194 -0.060003269 -0.020763166
-0.026804868 -0.05822685 -0.001572568
0.031855624 -0.095144004 -0.01346443
0.0086133229 -0.088612713 0.034320001
0.0017410424 0.011791938 0.023999985
-0.024667544 -0.0076740896 -0.0052745268
-0.027515758 0.10747073 0.047344405
-0.0048213163 -0.074024193 0.023999985
0.002502365 0.10478716 0.054682557
0.0043123444 -0.099999994 0.015497906
0.02125749 0.09530516 0.015980912
-0.022435814 0.125 -0.040283289
0.019968715 0.099999994 -0.027400073
-0.0098065296 -0.052488387 -0.023999983
0.021320267 -0.066619582 0.011072187
0.022764405 -0.024243772 -0.0085708927
-0.0041868091 0.125 -0.053312976
0.025744474 -0.08056055 -0.024049252
-0.007375868 0.125 0.033737484
-0.009753556 -0.032815214 -0.023999983
0.020350492 0.030525347 0.012751879
-0.036409084 -0.079979517 0.0054719159
-0.0090419268 0.030673441 0.02399998
0.013146209 0.075235575 -0.023999982
-0.016479241 0.018293347 0.019457115
-0.011507886 0.1160377 -0.053520106
-0.018438935 -0.032024253 -0.016062792
0.0025153579 -0.051819324 -0.023999982
-0.021134164 0.004099342 -0.011394517
-0.025558937 -0.054058224 0.0037306212
-0.03841202 0.099999994 -0.013111959
0.018508917 -0.099999994 0.027555959
0.019163506 -0.033271119 -0.014807833
0.0069220336 0.036969505 -0.023999983
0.044662967 0.1 -0.00026892684
0.0083316397 0.12425724 -0.054100581
-0.02383521 -0.099999994 -0.02255168
-0.027852686 0.099999994 0.030433744
-0.026502263 -0.099999994 -0.0086830305
0.01267658 0.1017684 -0.053383231
0.01856203 0.093528911 0.020649586
0.0017189505 -0.035752248 -0.02399998
0.021406855 0.05649564 0.010922201
0.016616017 -0.019902322 -0.019220214
0.025917176 -0.074811779 -0.0031101378
-0.014071177 0.037173085 -0.023627982
-0.001660293 -0.049959935 0.023999985
-0.013023905 0.084883392 -0.026399994
0.035875097 0.10646996 -0.041392945
0.0020358879 0.099999994 -0.03321331
0.031726826 0.099999987 -0.004205754
0.019397844 -0.099999994 -0.0018630722
-0.029225197 0.097691216 -0.0021804431
0.0063800542 0.099999994 -0.014767326
-0.026265085 0.057447724 0.0025075339
0.028355053 0.125 -0.014551222
-0.0046736249 -0.07263045 -0.023999982
-0.022596933 0.125 0.049456514
0.007885674 0.099999994 -0.047756989
0.01973681 0.073886879 -0.01381484
-0.031871848 0.125 -0.004707709
0.017231634 0.031637836 0.018153902
-0.0066971756 0.125 -0.011911171
0.0040348023 -0.023025515 0.023999985
-0.00012387056 -0.076138958 -0.024358576
-0.0071627116 0.048497718 -0.023999985
-0.039535288 0.10981638 0.037964791
-0.0078049405 0.12499999 0.027777281
-0.028700903 0.099999994 0.043439448
0.019877942 -0.048040457 -0.013570393
-0.0085509727 0.099999987 -0.046011038
-0.012455574 0.125 -0.021742642
-0.0093985619 -0.015984921 -0.023999983
0.022245392 0.0674292 -0.0094698491
0.027237915 -0.0037916854 0.00082251057
0.054011814 0.125 0.003270369
0.022425734 0.093368344 -0.013957467
-0.013462291 -0.011349144 0.02399998
-0.05379127 0.11155045 0.010344883
-0.014613207 0.066730075 0.02268918
0.044922579 0.11406454 -0.03128016
0.018679736 0.10572458 -0.051453065
0.025592066 -0.093235269 0.024313238
-0.01859848 -0.099165246 0.034319997
-0.037214115 0.125 -0.0010365248
-0.004865292 0.03871236 -0.023999987
-0.017527858 -0.0046960013 -0.017640829
0.02652155 -0.043334965 0.0020632958
-0.012006002 0.055142533 -0.023999987
-0.022540705 0.027323708 0.0089583509
-0.0093674548 -0.01813064 0.02399998
-0.012760633 -0.058288973 0.023999982
-0.02470023 -0.016287675 0.0052179443
-0.0026043672 0.029186115 -0.023999987
-0.0019954061 0.0062561724 -0.023999983
-0.014932254 -0.040844422 0.022136576
-0.015599701 0.0084594768 0.020980526
-0.0054183793 0.099999994 0.0057481183
0.024103748 0.010328867 -0.0062510823
0.044583995 0.099999994 -0.023030909
0.0082629994 0.099999994 0.0077960663
-0.018981086 0.10824759 -0.051491272
0.013892708 -0.016425854 0.023937091
-0.015800813 0.086365372 0.025432169
-0.01916636 0.010673852 0.014802886
-0.024666663 -0.092659578 -0.02591607
-0.02159385 0.02260411 -0.010598326
-0.0056984145 0.125 -0.045642562
-0.01666924 0.080854625 -0.023928011
-0.02804701 -0.091180652 -0.020061143
-0.00093893427 0.04647949 -0.023999983
-0.011271451 -0.036844052 0.023999982
-0.0076329689 0.1038712 -0.054423615
0.027405929 0.077999137 0.0029304801
0.010756303 0.057382457 -0.023999982
0.0099151582 -0.044263702 0.023999987
-0.021259155 0.068012871 -0.011178039
0.0062466017 0.099999994 -0.0055349125
0.043179009 0.125 -0.02007507
0.039831936 0.125 -0.0022823121
-0.022284701 0.099999994 0.017618529
-0.025361482 -0.064635627 0.0040726168
-0.05136618 0.099999994 0.010287778
-0.015315425 0.02581217 0.021472905
0.013933752 -0.0085620778 -0.023866031
-0.04471913 0.12282471 0.031564057
-0.038590651 -0.084255174 -0.0017990191
0.01210499 0.028960478 -0.02399998
0.0071991743 0.024978405 0.023999983
-0.044403374 0.11095347 0.032004699
0.052396812 0.125 -0.0025604311
-0.01291264 0.051391505 0.023999978
-0.027430886 -0.07212197 0.00048830733
0.02227886 -0.045198515 0.0094118547
0.027541332 0.099999994 -0.012107971
0.0020496547 0.087763026 -0.026399989
0.013877779 -0.00058854994 0.023962952
0.022665326 0.039836198 -0.0087425038
0.0087772626 -0.099999994 -0.020260677
0.014936017 -0.045727037 -0.022130059
0.037322782 -0.080965422 0.003995047
0.0016537504 0.099468201 -0.026399989
0.036190853 0.099999994 0.02936865
-0.014715485 -0.050738323 0.02251203
0.025614312 0.08539623 -0.0084346952
0.031411517 0.125 0.025840972
0.017066695 0.025811054 -0.018439619
0.033064716 0.125 0.018550359
-0.0078595672 -0.077803016 0.028651832
0.013929854 0.051905915 0.02387275
-0.023370653 0.056882169 0.00752084
-0.0363544 -0.099999994 -0.0054384312
0.016601406 -0.099999994 -0.031875726
0.013263111 0.02111559 0.023999987
0.019082343 0.011277721 -0.01494841
0.018665303 0.022342473 0.015670709
0.022287948 0.016651444 -0.0093961377
-0.0020311829 0.11073134 -0.054697998
0.051020958 0.10131636 0.019827781
0.020034159 0.07931795 0.017281331
-0.039470863 0.099999994 0.0042392528
-0.022864701 -0.068529777 0.0083971731
-0.015655896 0.07285998 -0.020883169
0.010186794 0.099999994 0.043249264
-0.017840102 -0.057848915 0.017100036
0.018160449 -0.056539744 -0.016545178
-0.003829367 0.099999994 -0.016945397
0.012684643 0.068690702 -0.023999982
0.053539377 0.10467181 -0.011425203
0.012961134 -0.056953155 0.023999989
0.01368304 0.039461128 -0.023999982
0.018785056 -0.088629402 -0.034319989
0.021234535 -0.0013847789 0.011220677
-0.011800339 -0.088702634 0.034319997
0.022611566 0.125 -0.012836264
0.051056147 0.11353376 0.019734303
-0.018929867 -0.086008921 0.034319997
0.020319978 0.059231196 -0.012804764
0.0049228575 0.125 0.054294705
0.0010994952 0.098314293 0.026399981
-0.01906215 -0.050956 0.014983384
0.026049016 -0.03659454 -0.0028817784
-0.018333903 0.125 0.0063169729
0.0045366152 -0.015446334 0.023999985
-0.0048191603 0.054472171 0.02399998
0.01862324 0.0052350694 0.015743572
0.023911877 -0.0026190539 -0.0065834136
0.054693289 0.10935864 -0.0021747071
-0.039062541 -0.09891744 0.00098168291
-0.018456323 0.099999994 -0.0005256664
-0.03149619 0.099999994 -0.031791944
-0.024283776 0.099999987 -0.00044332631
-0.026364796 -0.04490938 -0.0023347959
0.00050327834 0.064043112 -0.023999985
-0.0082230214 -0.078230821 -0.02975554
-0.021597579 0.09393581 -0.015391872
0.021501733 -0.095241696 -0.031397901
-0.024354588 0.099999994 0.048513666
-0.0037452024 -0.033979833 -0.023999982
0.0091962423 0.099999994 -0.030570693
-0.023533789 0.125 0.011103447
0.035747975 -0.081810907 -0.0067226803
0.0013691559 0.020612445 0.023999982
-0.026567206 -0.078494482 -0.014855843
-0.013178481 -0.063112542 -0.023999985
0.051105149 0.12496973 0.019604107
0.018307209 0.07164187 0.016290948
-0.020621287 -0.099999994 0.00415975
0.054719217 0.1193383 -0.0013826173
-0.021251455 -0.0063173426 -0.01119137
-0.017255068 -0.020237239 0.018113345
-0.019627823 -0.099999994 0.027278107
-0.029577976 0.125 -0.023958109
0.02155632 0.081562608 -0.015463335
0.028884461 0.12084296 0.046639301
0.0095811468 0.11407433 0.05396935
0.0030117547 -0.0095560225 0.023999985
-0.014196833 -0.04775241 -0.023410333
-0.024959771 0.092713922 -0.0095683811
-0.027452864 -0.012667601 -0.00045020599
0.054604918 0.1026441 -0.0048741512
-0.026407223 0.084790342 0.0070613329
0.010422045 -0.042784154 -0.02399998
0.020239698 -0.025256133 0.012943786
-0.0012532775 0.099999994 0.012895854
-0.019118128 0.099999994 0.038985636
-0.0010768026 0.099999994 -0.044355322
0.024247106 0.099999994 -0.032144286
0.022607207 0.034451455 0.0088431351
-0.026032148 -0.06730701 -0.0029109558
0.015728034 -0.071299292 0.020758223
-0.035257891 -0.096760154 0.0075715296
0.0071839793 0.125 0.021469966
0.022422334 -0.0800175 -0.029803362
0.023963157 -0.062764235 0.0064945612
0.012235401 -0.099999994 -0.00060314825
0.004554363 0.125 0.008996035
-0.015081805 0.125 -0.028622048
0.0010016093 -0.099999994 -0.0061559137
-0.0039212853 0.099999994 0.035665732
0.02400437 -0.099999994 0.0204276
0.0027055005 -0.010697112 -0.023999983
0.017800611 0.125 0.0028277305
0.0089593753 0.086309657 0.026399985
0.0099568637 -0.028676847 -0.023999978
0.014139373 0.099999994 -0.0069870008
-0.0437687 0.125 0.0050895493
0.041967019 0.099999994 0.0054820143
0.026094366 0.054924898 0.0028031962
-0.032344639 -0.095579311 0.01261743
-0.0031415718 -0.047715932 -0.023999983
-0.021490797 -0.057542287 -0.010776812
-0.025178252 0.049831968 0.0043899864
-0.020654693 0.11620317 -0.050732974
0.0047341981 -0.069256261 0.023999985
-0.014521709 -0.029414486 -0.022847628
-0.046849336 0.10150404 0.028591352
-0.042034715 0.099999994 -0.0014722757
-0.024167918 0.083459876 -0.010939913
-0.020345071 0.11158915 0.050826266
-0.014083928 0.015852137 -0.023605889
-0.0024578916 -0.00025557869 -0.023999983
-0.019428845 0.0093030846 -0.014348218
-0.035085268 0.099999987 0.028148053
0.024154676 -0.066082343 -0.0061628749
-0.013488771 0.11058425 -0.053058233
0.030963335 0.125 -0.023885511
-0.0016662935 -0.015855292 -0.023999985
0.015204964 0.071010292 0.021664193
-0.048161838 0.1104701 0.026329299
0.0539492 0.10932446 0.0092485305
0.022775566 -0.076392643 -0.010577762
-0.022674397 0.019383784 0.0087267905
-0.010258942 0.0061770533 0.02399998
-0.0067047072 -0.099999994 0.0029499873
0.026850265 -0.085772544 0.022133976
0.018517815 -0.062815465 0.015926171
-0.0005797809 0.0032263333 0.023999985
-0.032605454 -0.085728511 0.012165682
0.033721521 0.125 0.0010742033
-0.050163329 0.125 -0.013409054
0.014996195 0.125 -0.015182437
-0.01303631 0.125 -0.014836758
-0.016717883 0.091241963 -0.02384376
-0.0032570437 0.068084128 0.023999978
0.024009414 0.11870419 0.049212959
0.038368646 0.10820479 0.039104097
0.014455272 0.125 -0.04588633
0.021468488 0.039652273 0.010815455
-0.00094478484 -0.057440296 0.023999983
-0.041272648 0.125 0.012084051
-0.0012147389 -0.037393495 0.023999985
-0.011175713 -0.099999994 0.0071611195
-0.018886384 -0.076149441 -0.016059052
0.026384082 0.099999994 -0.02319929
-0.0010720599 0.125 -0.018533504
0.00079270825 0.11442375 0.054738529
-0.02663289 -0.05121889 -0.001870444
-0.010257984 -0.042194039 -0.023999983
0.050408274 0.125 -0.014173259
0.040891722 0.099999994 0.014232145
-0.017931717 0.044036366 -0.016941324
0.013488689 -0.0082121892 0.023999987
0.013723706 -0.099999994 0.0050690901
-0.024484282 0.125 -0.010319704
-0.023710258 -0.099999994 -0.016015882
0.052449808 0.11269847 -0.016098104
0.03412313 0.12272151 0.04288533
-0.015698511 0.125 0.047726247
-0.031025905 0.099999994 0.014714355
0.0065113241 -0.052004211 0.023999985
0.017705716 0.099999994 0.042689878
0.012715452 0.1235335 0.053238533
-0.027194381 0.045069367 0.00089794863
0.026691291 -0.069526277 0.0017692959
-0.041165233 0.125 0.026485156
-0.028736755 0.089474179 -0.0030264491
0.03590823 0.125 0.032780927
-0.0014489396 0.092918344 0.026399979
0.0044278218 -0.099999994 0.022641819
-0.028391758 -0.082363106 -0.01946402
-0.03483602 -0.094107404 -0.008302236
-0.03672532 0.125 -0.020220362
-0.0068781408 -0.061792485 -0.023999985
0.041444261 0.11182097 -0.036134135
-0.0072390651 -0.099999994 -0.014041761
0.015290001 0.050031297 -0.021516941
0.047284264 0.12136135 -0.02798442
-0.0081686638 0.030602319 -0.023999985
0.011869182 -0.021853659 0.023999989
-0.025523659 -0.027309343 -0.0037916889
-0.043851551 0.099999987 0.0087073194
0.00092463556 0.099999994 0.0056616566
0.01989329 -0.078915417 0.028587414
0.016397204 -0.053107612 0.019599184
0.011819111 -0.089206249 -0.034319993
-0.022093225 0.011004589 0.0097334087
-0.0060983486 -0.092909314 0.034319997
0.039146762 -0.085038908 -0.00083580613
0.014301828 0.125 0.021849262
-0.026326803 0.01228789 -0.0024006059
-0.050132625 0.125 0.0065722745
0.016856533 -0.0066617345 0.0188036
0.019450102 0.1195363 -0.051163118
-0.031978223 -0.080004059 0.013252081
0.012918534 0.099999994 0.038143922
-0.013337662 -0.099999994 0.031626925
-0.020623889 -0.066101216 -0.012278337
-0.007744547 0.099999994 -0.025521016
0.017161809 0.05114894 0.01827484
-0.012885096 -0.079534195 0.033118248
0.034924924 0.099999994 0.0008592112
-0.01100505 0.1 0.035934754
0.016094849 0.125 0.028564138
0.020222727 -0.0035971352 -0.012973206
0.002466321 0.099999994 -0.020039771
0.0049272459 -0.088421389 -0.034319993
-0.018140184 -0.099999994 0.019946665
0.00072414428 0.080120474 0.026399981
-0.045484982 0.125 -0.0076932684
0.024122255 0.032275766 -0.0062190262
0.016975176 -0.036691815 0.018598108
0.0092153326 -0.099999987 0.0096418308
-0.014445145 0.099999994 -0.033813186
-0.011326286 0.094191357 -0.026399991
-0.053782351 0.12214109 0.010383142
-0.054751698 0.11453877 0.00039063394
0.035881285 -0.091998376 -0.0064917775
-0.016573887 -0.024892719 -0.019293148
-0.041778445 0.125 0.019827608
-0.0085843792 0.099999994 -0.036387585
0.0067980997 0.09369579 -0.026399985
0.021116097 0.066773623 0.011425809
-0.026111905 0.11991176 -0.048260342
-0.0032690708 0.091972619 -0.026399989
0.046483308 0.125 0.0050103497
-0.026330652 -0.020151386 -0.0023939367
-0.0052623013 0.077352852 0.024811704
-0.0012047915 0.059725378 0.02399998
0.040935706 0.10475063 -0.036653165
-0.0015071882 -0.099999994 -0.013138504
0.01402513 0.034501612 0.023707729
-0.0097603165 -0.070626177 0.023999985
0.019533165 0.046962537 0.014167529
-0.0022880184 -0.0067025525 -0.023999983
0.026798386 0.033465944 0.0015837951
-0.028875194 0.099999994 0.0091452803
0.045214709 0.099999994 -0.0076633291
0.015196746 0.017264239 -0.021678463
-0.026241947 -0.078107655 0.013423217
0.018361986 0.015745405 0.016196076
-0.043316685 0.125 -0.014049243
-0.025427444 -0.0078238621 0.0039583724
-0.031777784 -0.084530026 -0.013599249
-0.011744861 -0.071632475 -0.023999983
-0.028747743 0.11415556 -0.046737287
-0.023834137 0.125 -0.016650327
0.012243193 -0.081730187 0.034320001
0.015080882 -0.062474918 0.021879118
-0.0080846176 0.098388143 0.026399976
-0.029716672 0.11568961 0.045975786
-0.037469365 0.125 0.0065479921
0.0020926683 -0.099999994 0.0077351532
-0.035115279 0.099999994 0.00014135707
-0.035397526 0.125 -0.014077934
0.0260222 -0.099999994 0.00027653016
0.013225894 0.099999994 -0.00030932669
-0.00040871464 0.125 0.020743391
0.019319022 -0.099999994 -0.023612116
0.0082518887 -0.099999994 -0.012022804
0.019893479 0.125 0.046744093
0.0040694205 -0.00022734415 0.023999983
0.0067335521 0.059818707 0.023999982
-0.012968624 0.042679913 0.023999978
-0.015500057 0.12499999 -0.03761863
0.002564691 0.099999994 0.032910276
0.0025109593 -0.094413526 0.034319997
0.011373727 0.022378458 -0.023999982
0.016130252 -0.026289178 0.020061558
-0.014576901 0.059263717 0.022752065
0.027309472 -0.028695444 0.00069857389
0.0054436419 0.05941727 -0.023999983
0.025948407 -0.024346087 -0.0030560344
0.024069075 0.125 -0.0048302873
-0.0015607914 -0.079213321 0.032290384
0.024481911 -0.078493193 -0.018461013
0.049837146 0.11841956 0.022973092
0.014949261 0.125 0.037059125
0.023294253 -0.014334053 -0.0076531689
-0.021405701 0.038866431 -0.010924211
0.010819184 -0.0017150126 -0.02399998
-0.01731457 0.099999987 -0.046769828
0.0033671176 0.04154446 -0.023999983
-0.025150584 -0.038580779 -0.0044378731
-0.0053125415 0.125 -0.037334647
-0.0147682 0.125 0.034875341
0.010678387 -0.028522471 0.023999989
-0.019653404 0.091059253 0.018759284
0.0040283776 -0.044613212 0.023999987
0.016814837 -0.1 -0.014806387
-0.027194679 0.0005703115 -0.00089739636
-0.053150363 0.11953154 -0.014086964
-0.019092204 -0.099999994 -0.0042616944
-0.035690062 -0.079524726 -0.0043706074
-0.028300332 0.10247481 -0.047057901
-0.017879687 0.065969594 -0.017031448
-0.01533776 -0.083208635 -0.034319993
0.003982455 0.1 0.00063696632
-0.0044752061 -0.083706856 0.034319997
-0.027086146 -0.032387346 -0.001085382
0.048913024 0.10502106 0.02499322
0.037082188 -0.099999994 -0.00095959939
-0.030181015 -0.099999994 0.0091024656
0.054795336 0.11458594 0.0041235387
0.026161639 0.10214798 0.048237797
-0.015418828 -0.033966705 0.021293806
0.030591458 0.11419787 0.045416083
0.032052267 0.10529647 0.044369284
-0.050987456 0.12363161 0.020093014
-0.011733795 0.022072712 -0.023999989
0.019374881 0.045546338 -0.01444172
-0.0088789854 0.125 0.0091331527
-0.011605741 0.036162466 0.023999978
-0.013041442 0.068658747 -0.023999991
-0.013265127 -0.027365427 0.02399998
0.019955818 -0.071250305 -0.013435507
-0.025190249 0.064265057 -0.0043691797
-0.022367761 0.099999994 0.033576094
-0.01454268 0.099999994 -0.040601518
0.016059648 0.087085947 -0.024983861
0.027368078 -0.060984991 0.00059706997
-0.020890247 -0.016120076 0.011817032
0.026916694 -0.011202502 0.0013788883
0.00081089977 0.069898166 -0.023999987
0.036494091 0.099999994 0.0093559092
0.018775105 0.10069911 0.051584594
0.024113361 -0.099999994 -0.013324274
0.017298948 0.042262651 0.01803731
-0.016772099 -0.053861987 -0.018949838
-0.0078661051 0.12499999 0.0033927832
-0.01132031 0.0035151679 -0.023999985
-0.018698767 0.074518733 -0.015612758
-0.054789726 0.10321517 -0.00077123381
0.026902111 0.04854621 -0.0014041746
0.012019826 -0.099999994 -0.0074150097
0.022739505 -0.085074984 0.029254023
0.0010165237 0.055250224 -0.023999985
-0.054858118 0.12045899 -0.0028603878
0.0030195678 0.125 -0.0085613262
-0.022922313 0.099999994 -0.032901827
-0.0042671505 -0.094026558 -0.034319993
0.034418631 -0.090560853 0.0090251798
0.012079109 -0.096502826 -0.034319989
0.053422727 0.12306441 0.012437351
-0.0050342288 0.12499999 0.047862392
-0.026736122 0.099999994 -0.025958424
-0.036194727 0.125 -0.030955292
-0.051238127 0.10981241 0.019539762
0.038869794 -0.090505078 0.0013155397
-0.049603008 0.11398369 -0.023595186
-0.021733794 0.07205344 0.010355962
-0.022479232 0.099999994 -0.040974222
0.0035381741 0.065013327 0.023999983
0.033146165 0.1007102 -0.043843195
-0.035482135 0.125 0.016955055
-0.017650202 0.037628636 -0.017428923
-0.034847815 -0.089964554 0.0082818028
-0.021285659 0.045947678 -0.011132127
0.020581108 0.11322691 -0.050737433
0.017074065 0.070265859 -0.018426849
0.027833356 0.10907911 0.047392514
0.053875752 0.10286449 0.0096933804
0.016111668 -0.042697228 0.020093745
0.001063331 -0.085464552 0.034319997
0.0012489352 -0.028537298 -0.023999982
0.02707739 0.011420486 -0.0011005821
0.018489085 0.099999994 -0.044789627
0.010132398 0.125 0.0047851182
0.019512918 -0.03321971 0.014202606
0.0083724242 -0.099999994 -0.031518742
0.054355755 0.1200951 0.006786013
0.026429417 0.071674757 -0.002222904
0.013841198 -0.048365552 0.023999989
0.01849122 0.078856885 -0.01940053
-0.00080572325 0.125 0.0048313248
0.0050484482 -0.081022702 0.034319997
0.03714031 0.125 0.012787014
0.0075173522 -0.0050449604 0.023999983
0.028705657 -0.097792923 -0.01892033
-0.016868619 0.125 0.018959792
-0.0085976413 0.084079131 0.026399978
-0.012550931 0.099999994 0.043257669
0.024878301 0.062485017 -0.0049095191
-0.017606081 -0.061468694 -0.017505338
-0.019280829 0.099999994 0.01003593
0.01440312 0.125 -0.022894008
0.018606128 0.053358085 -0.015773237
0.025826313 0.099999994 0.004396704
0.015992505 0.043634892 -0.020300167
-0.028385988 0.099999994 -0.010781516
-0.0057181334 0.069620103 -0.023999989
0.012756808 -0.096469149 0.034320001
0.026796559 -0.085919045 -0.022226987
0.026738206 0.079152837 -0.0054714731
-0.0024205353 0.099999994 -0.0025697129
0.01071947 0.099999994 0.024942283
-0.0022424869 0.099999994 -0.051492751
-0.014135644 0.048343934 -0.023516323
-0.043941282 0.099999994 -0.015020482
0.017240502 0.0059779077 -0.018138573
0.020525144 0.0025588977 -0.012449405
0.039496671 0.099999987 -0.029875718
-0.0014388561 0.125 -0.028817099
-0.01513393 0.12158758 -0.052674629
-0.021756914 -0.018133713 -0.010315889
-0.025099695 0.073707692 -0.0045260256
0.035831906 -0.097825289 -0.0065773074
0.012164415 0.099999994 -0.04035636
0.014216276 0.099999994 0.032179616
-0.016453169 -0.017455606 -0.019502245
-0.017045042 -0.077356324 -0.025475828
0.024892598 0.022169508 0.004884718
-0.051380791 0.125 -0.003519604
0.013312479 0.1079108 -0.053278245
-0.02781295 0.12163776 0.047159601
-0.017594194 0.00047876156 0.017525962
-0.030562455 -0.090514548 0.015704261
0.039143704 0.099999994 -0.015756939
-0.025582351 -0.024682954 0.0036900649
-0.033062045 0.125 0.034376513
-0.0033243839 0.12081832 0.054873306
-0.010538814 -0.099999994 0.01375681
0.013487742 0.042782597 0.023999985
0.02400713 0.085750178 0.011218391
0.054840077 0.10537245 0.0023093559
0.022515638 0.125 0.041471239
0.032746542 0.099999994 0.021560065
-0.010440802 0.10304354 0.053752348
0.023219876 -0.096371174 0.028421994
0.023513462 0.052477613 0.0072734514
0.019892983 -0.063277818 -0.013544342
0.0085617565 0.11399567 -0.05406259
0.0087795891 0.032148644 0.023999985
0.015578716 0.008155317 0.021016845
-0.017545544 0.125 -0.018308502
0.02161165 -0.019814393 0.010567496
-0.023832619 -0.00052727835 -0.006720663
-0.018870348 0.023221696 0.015315596
0.0013712384 0.099999994 0.044715676
-0.002987829 -0.040811814 -0.023999982
0.017468594 -0.038051985 -0.017743506
0.02756976 0.125 -0.032501452
-0.025922984 0.023492724 0.003100072
0.030338703 -0.087345935 -0.016091814
0.010948452 0.1 0.014653562
-0.051303521 0.10247868 0.019395445
0.021393359 0.0082634771 0.010945586
-0.053022746 0.11616893 0.013640905
0.009053383 0.073262937 0.023999983
0.021832932 0.125 -0.020539327
-0.027677292 -0.099999994 0.014730782
0.024088187 -0.054968487 -0.0062780348
-0.020762347 0.125 -0.02497269
-0.042969815 0.10174078 -0.034191504
0.046192557 0.125 0.022958362
0.03945642 0.099999994 0.022337697
-0.026213445 -0.079549819 0.020914067
-0.01503659 0.099999994 0.030694649
0.011865342 -0.099999994 -0.025434196
-0.021883462 -0.024843439 -0.010096699
0.032077171 -0.079664476 0.011349427
0.026507899 0.089393467 0.0068869283
-0.014752103 -0.066072404 0.022448607
0.0026612692 -0.033187598 0.023999985
0.01466376 0.12378056 -0.052964568
-0.0034200237 -0.099999994 0.017179389
-0.014171104 0.099999994 -0.052771971
-0.035247248 0.099999994 -0.02428047
-0.028299231 0.08150287 -0.0037842626
0.0079474077 -0.064274848 0.023999989
-0.016579693 0.125 -0.046746362
0.052827835 0.11733352 0.015027044
-0.029230025 0.10847003 -0.046391688
0.018790051 -0.0097525325 -0.015454673
0.026736997 0.041804418 -0.0016901623
0.02624424 -0.054528527 0.0025436152
-0.018908802 0.030680444 0.015248995
-0.024862614 0.048230074 -0.0049366606
-0.027377008 0.052091129 -0.00058159977
-0.0034557432 -0.0042385822 0.023999982
0.05245053 0.11973941 -0.016095003
-0.016366463 0.012379858 -0.019652419
0.0095928954 0.125 0.034950659
-0.0011854777 0.12499999 0.011854286
0.01887887 0.125 0.01183317
-0.012434143 -0.045697071 0.023999982
-0.01428938 -0.099999987 -0.023308342
0.042891283 0.125 0.033077363
0.0207422 -0.054679655 0.012073424
0.021149624 0.099999994 -0.038028792
-0.014517003 -0.010461711 -0.022855785
0.02599735 0.06940981 0.002971231
0.016417913 0.088429496 0.024363304
-0.016228609 0.039894093 0.019891225
0.048265193 0.11547685 -0.026101179
-0.025080506 -0.079936229 -0.02487025
-0.010117591 -0.0057681496 0.023999982
-0.036305934 0.11627138 0.040989414
-0.05467166 0.12326653 0.0028355084
-0.026375061 0.093283013 0.0071170307
-0.050999951 0.10758877 -0.019883616
0.023171961 0.023226092 -0.0078649838
0.024230925 -0.048064142 -0.006030804
-0.0054341629 -0.065240398 0.023999985
0.049133465 0.11088271 0.02463872
0.042889737 0.10977199 0.034276985
0.00171421 0.053782649 0.023999983
0.0025692247 0.125 -0.044919636
-0.022277929 0.048946507 0.0094134919
-0.010942601 0.125 -0.043452509
0.031786591 -0.099999994 0.0037198905
0.00870906 -0.0778419 -0.028752141
0.0064635454 0.125 0.030016344
0.015766229 0.099999987 0.0064530913
-0.00046269642 0.099999994 -0.010917326
-0.024888176 -0.085868463 -0.025532395
0.00012433616 0.125 -0.002287057
0.017991025 -0.00074604794 0.016838601
-0.013349498 0.021115469 0.02399998
0.0082113277 0.011055159 0.023999985
0.0099129528 0.087265804 -0.026399983
-0.0033430718 0.099999994 0.02985245
0.0017665057 0.125 0.03479372
0.02669758 0.099999994 0.017453417
0.027081754 0.0025355786 0.0010929909
-0.022885032 0.125 0.037812483
0.013185302 0.080342948 0.026399987
0.02131748 0.1 -0.0085225618
0.025655793 0.125 0.021219021
-0.030371025 0.125 0.043215863
0.019795578 0.031135559 -0.013713052
-0.010568544 0.099999994 -0.015987692
-0.044079542 0.099999994 -0.0083366502
-0.034631778 0.099999994 0.041603055
0.0075073089 0.099999994 0.029761154
0.026365569 -0.020757014 0.0023334669
0.0091202101 -0.058681436 -0.023999978
-0.023158126 -0.099814571 -0.028528929
-0.041509353 0.12007232 0.036043305
0.035500038 0.1 -0.036655895
0.010594814 0.099999994 0.049135946
0.02301429 0.073484786 -0.0081380773
0.022384256 -0.099999994 -0.007047154
0.029414415 0.091817319 0.0018526912
0.0095573822 -0.036204685 0.023999985
0.042255674 0.125 -0.031423084
-0.051048845 0.12389347 -0.019753722
0.045236453 0.099999994 -0.013734985
-0.022228722 -0.0082630813 0.0094987238
-0.028581273 -0.096412614 0.019135771
0.0077007348 -0.03570161 -0.023999982
0.03748621 0.11341327 -0.039883971
-0.010584846 -0.099999994 0.02118885
-0.016854629 0.05404041 -0.018806899
0.022321066 -0.033537179 -0.0093387766
-0.019008717 0.060759392 -0.015075907
0.040412083 0.125 0.026107177
0.028192008 -0.091671407 -0.019809997
-0.019710286 0.053524591 -0.013860755
-0.022876944 -0.001685858 0.0083759669
-0.025578137 0.125 0.023581697
-0.013299244 0.099999994 0.015117861
-0.02593144 0.125 -0.03443573
0.012266327 0.092675433 0.026399985
-0.020938005 -0.090773791 -0.032374293
-0.0090046581 0.125 0.041328508
-0.041110348 0.099999994 0.016344326
0.028785527 0.125 0.040802922
-0.030883955 0.12499999 -0.03961179
-0.042366378 0.10993501 -0.034835782
-0.03187418 -0.091153249 -0.01343229
-0.023863846 0.125 -0.0025310973
0.021144371 -0.011489145 0.011376845
-0.023737866 0.066883422 0.0068848063
-0.02279862 0.125 0.032118846
-0.033458564 0.1 0.033803441
-0.046797164 0.1021066 -0.0283958
-0.0071514538 0.059880298 0.02399998
0.01345974 -0.054871988 -0.023999978
-0.010840327 -0.099999994 -0.0051311683
0.017877314 0.099999994 0.015523767
-0.0021650884 0.08638595 0.026399981
0.0025430452 0.12082292 -0.05484774
0.021731835 0.022485822 0.010359321
0.025695752 0.054422606 -0.0034936508
-0.037420727 -0.087043032 0.0038253823
0.028311599 0.095293753 -0.0037628505
-0.0010833936 0.125 0.026948078
-0.0096238041 0.125 -0.050031547
-0.033115827 -0.077967457 0.00079391245
-0.014952087 -0.037203602 -0.02210219
0.038531572 0.11746196 0.038930144
-0.017850414 0.098478265 0.021882154
-0.017540956 -0.04710605 -0.017618138
0.036156017 0.12293893 -0.041129835
-0.0046815355 -0.099999994 -0.0039448254
0.0072125513 0.08027263 -0.026399985
-0.0078169703 0.125 0.020945866
0.015090524 -0.076295808 0.023388933
0.024799872 -0.080850102 0.025685359
-0.017692769 0.080946676 0.022155203
-0.026121598 0.037958309 -0.0027560322
0.046375353 0.12288387 0.029074123
0.017627649 0.125 -0.038613155
0.0068438193 0.018369408 -0.023999982
-0.044992454 0.125 -0.022866379
0.030768691 0.125 -0.0040174117
0.028541194 0.087426618 -0.0033651795
-0.0072083808 0.091054127 0.026399978
0.039090432 0.099999994 -0.0036063222
-0.022548579 0.093725361 0.013744691
-0.017235165 0.125 0.012709664
-0.028857926 0.125 0.0087662954
-0.033037394 0.099999994 -0.042885736
0.020906297 0.125 0.017663527
0.017655149 -0.080647767 -0.034319989
0.020812377 -0.089567661 0.032591905
-0.053219773 0.11386658 -0.013666568
-0.0085414136 -0.089169554 -0.034319989
0.0080023883 0.125 -0.0004993733
0.019940045 0.099999994 0.03228068
-0.024742298 0.028467335 -0.005145045
-0.033644479 0.10743307 0.043482151
0.004274684 -0.04417593 -0.023999982
-0.046943232 0.125 0.024173023
0.024356615 0.125 -0.027357798
-0.0043876488 -0.099999994 0.033943743
0.0072230706 0.016649159 0.023999985
-0.0032090144 0.099999994 0.020012846
-0.027104689 0.069127239 -0.0010532727
0.034789342 0.125 -0.034813367
-0.015756227 -0.0050308998 0.020709414
0.0062806327 0.038685825 0.023999982
0.0071295565 -0.076684117 0.025765073
-0.041026354 0.10152969 0.036568247
0.027599307 0.063615344 0.00019655656
-2.9196963e-06 -0.099999994 -0.027985157
-0.054311771 0.11074263 -0.0070524924
0.022396803 0.078438163 0.01213337
-0.020898411 -0.043261774 0.011802888
0.0088100955 0.048444577 0.023999983
-0.054561563 0.11828078 0.006198898
-0.015613962 0.060365267 -0.020955801
0.027297843 0.024164509 -0.0007187454
0.0064507043 0.125 -0.039763443
-0.021662882 0.015204118 -0.010478751
-0.024452329 0.11638059 0.04924937
0.053651575 0.11490086 -0.010944015
0.010789601 0.014207506 -0.023999982
-0.020163549 -0.079422072 0.030733634
0.025270905 0.10572315 -0.048740342
-0.050991565 0.10014135 -0.019905897
0.016683718 -0.02692903 -0.01910295
0.023630047 0.0032778571 -0.0070715561
-0.013515539 0.099999994 -0.028139858
0.01617099 0.060454812 -0.019991027
0.043222915 0.125 -0.0085308347
0.0029240814 -0.099999994 -0.016972167
-0.016510973 0.053638224 0.019402154
0.024792859 -0.015946647 0.0050574755
0.023721471 0.044387519 0.0069131693
0.0019717328 0.125 0.048817012
-0.046849638 0.1111362 -0.028311428
-0.024392499 0.1104383 -0.04903939
0.020966064 0.099999994 0.020722982
0.002495504 -0.062498309 0.023999985
-0.045707531 0.125 -0.0018664282
-0.007772895 0.125 -0.030110247
0.0079986677 0.125 -0.048290513
0.041814528 0.125 -0.014311794
0.014157418 0.099999994 -0.023731463
0.029400818 0.125 -0.038241856
-0.010307547 0.099999994 -0.0069209756
-0.032358598 -0.099999994 -9.253528e-05
0.013066636 -0.023424542 -0.023999978
0.0046439497 -0.082350269 -0.034319993
0.042946763 0.11929569 0.034216098
-0.041045919 0.099999994 -0.02258075
-0.0041622301 -0.05394695 -0.023999982
0.023546692 -0.072792359 0.0072159003
-0.026938606 0.032094136 -0.0013409322
-0.021572074 -0.034816109 0.010636069
0.004044408 -0.0038397396 -0.023999983
-0.020946091 0.099999994 -0.014698163
-0.026237756 -0.092923597 0.023194859
-0.0069229081 0.125 -0.0051796502
-0.01756873 0.062836505 0.017570067
-0.023768142 -0.062535495 -0.0068323389
-0.024756957 0.099999994 0.024268135
0.0089942161 0.099999994 -0.020006228
0.0039398521 0.10528557 -0.054825671
0.0096123414 -0.068482555 -0.023999978
-0.012209516 -0.094309784 -0.034319993
0.024776064 0.125 0.0019289386
0.015284533 0.093894862 -0.026326388
-0.0049100188 -0.027200872 -0.023999982
0.051168121 0.10589775 -0.019694285
-0.018157976 0.11712117 0.051649436
0.023216937 -0.088924713 -0.028427076
0.0046120398 0.099999994 -0.052819427
0.025952082 0.125 0.014258932
0.050071862 0.11908916 -0.02211377
-0.029573837 -0.084309332 0.017416598
0.010473073 0.0049312403 0.023999985
-0.020732094 -0.077878326 0.02178321
-0.025595034 -0.038542099 0.0036680987
-0.019851375 -0.0050199777 0.013616408
-0.015458829 -0.094286121 0.034319997
0.0050160927 -0.099999994 0.0020701517
-0.018081646 0.069150917 0.016681669
-0.018975453 -0.079293922 -0.032130189
-0.01539897 -0.099999994 0.00015859073
0.019203551 -0.072921261 0.014738446
-0.05308909 0.10652852 -0.014332922
-0.013175503 0.125 -0.00030549895
0.015908418 -0.066692643 -0.020445811
-0.013448693 -0.076479048 0.025235986
0.013932554 -0.014877048 -0.023868108
0.0013934132 0.04379338 0.023999982
0.033444006 -0.077981293 0.00029680599
0.024912728 -0.042194635 -0.0048498861
0.022743657 0.0519673 -0.0086068278
-0.054042347 0.11690962 -0.0086843502
-0.034879074 0.10666063 -0.042343646
-0.0064207697 0.011178322 -0.023999985
0.0040009581 0.125 -0.024289181
-0.0036532208 0.0097492086 0.023999982
0.0033187815 0.125 0.01598556
0.054381564 0.1235593 -0.0078132618
0.014214677 0.125 0.042701684
0.025673755 -0.099999994 0.0059630033
-0.020996433 0.125 -0.031585198
0.013364669 -0.034498755 -0.02399998
-0.0031675212 0.125 0.038568709
-0.0021366142 -0.099999994 -0.033435345
-0.014010991 -0.021614654 0.023732251
-0.0070976513 -0.05251883 0.023999982
0.012756932 0.099999994 -0.01373872
0.033071671 0.099999994 -0.015239639
-0.025797216 -0.07646323 -0.0057082744
0.0073671574 0.125 0.04549871
0.027674379 0.099999994 0.034276489
0.0013277205 0.02104073 -0.023999983
0.016728133 -0.012889321 0.019025991
-0.010003036 0.125 0.052436687
-0.0046187807 0.1000612 0.05471357
-0.025792848 0.058351271 -0.0033254465
0.025742959 0.018850358 -0.0034118854
0.016884776 0.037017144 -0.01875471
0.016935723 -0.050151255 -0.018666467
0.024732221 0.099999994 -0.04377069
0.021998936 -0.043714337 -0.0098967217
0.0016308622 -0.078129798 -0.029494904
-0.014301723 -0.088848181 -0.034319993
0.018183712 -0.099999994 0.010452821
-0.011286638 0.099999994 0.0041730665
-0.03940386 0.125 -0.0086827511
-0.024787102 -0.099999994 0.02374585
0.0049853977 0.099999994 0.050442677
0.018830245 0.094807953 -0.020185038
-0.025922043 0.076868534 0.0041439645
-0.053218208 0.099999994 -0.0094625726
-0.028683949 0.088222377 0.0031179227
0.013903447 0.0036151514 -0.023918521
0.0093014436 -0.074426003 -0.023999978
-0.016296156 -0.06711112 -0.019774195
-0.0073753027 0.015092948 0.023999982
0.014471387 -0.078078531 -0.029362636
0.019127581 0.066144742 -0.014870057
-0.017339697 -0.029262887 0.017966762
0.0053616129 0.073381864 -0.023999985
-0.014944687 0.125 -0.0085538086
-0.01783167 0.125 0.026555935
-0.013439232 0.091948032 0.026399976
-0.0062802406 -0.099999994 -0.027247345
-0.0027662553 0.10814993 0.054855034
-0.039820317 0.11480495 -0.037554178
0.01635682 0.10773515 0.052389484
0.024478409 -0.0080882823 0.0056021167
-0.021377869 -0.057206377 0.010972444
0.005693242 0.0018375806 -0.023999982
0.046190981 0.10780796 0.029370621
-0.022409387 0.125 0.043670148
0.016798474 -0.00024093722 -0.018904187
0.023492105 -0.077197015 0.013487213
-0.0025528315 0.07451003 -0.023999989
-0.02958639 0.125 0.0278327
-0.00698929 -0.029593319 0.023999982
0.016148215 0.097654745 0.024830442
-0.027212188 -0.099999994 0.0034516146
-0.0055445842 0.056923635 -0.023999985
0.0386476 0.10070698 0.038806267
-0.016100954 0.074841559 0.020112328
0.0075620939 -0.099999994 0.027588747
-0.025059497 -0.047802117 0.0045956713
-0.025241572 0.125 0.0171194
-0.020234296 -0.099999994 0.010154944
0.046404384 0.10030102 0.02902744
-0.036870088 0.099999994 -0.0073309811
-0.034790121 -0.086893335 -0.0083817327
-0.014116978 0.11320386 0.053145409
0.025539014 0.12041827 -0.048573628
0.0058479123 0.06648282 -0.023999985
0.0028614718 0.125 0.041243602
0.010438748 0.10408276 0.053769384
-0.015965078 0.00028379896 -0.020347644
0.038907848 0.125 0.0050695371
0.022230811 0.11182696 0.050018832
0.034212768 -0.097757444 0.0093817459
-0.0032570455 0.032545574 0.023999982
-0.018611364 0.017485429 -0.01576414
0.0014347602 -0.076631442 0.025629183
0.014914678 0.015950704 0.02216699
0.019877324 0.038315356 -0.013571464
-0.016995469 0.046766035 0.018562984
0.0092436206 0.125 -0.031050164
-0.0049402486 0.017062005 -0.023999985
-0.0065089343 -0.083746888 -0.034319993
0.032263454 0.099999994 0.039834812
0.023189697 -0.050983861 0.0078342343
-0.024330508 0.0081763808 -0.0058582863
0.013282613 -0.078220405 0.029728679
0.013333031 0.08212129 -0.026399981
-0.0055884677 0.085831225 -0.026399989
0.011696247 0.06306123 -0.023999982
-0.045143742 0.099999994 0.022345683
0.025076158 -0.038198359 0.0045667915
-0.037293427 0.099999994 0.01123097
0.0030872421 0.125 -0.032759048
0.019793734 -0.023816373 -0.013716243
-4.9673021e-05 0.074194692 0.02399998
0.014140669 0.11795169 -0.053141508
0.0066525675 0.1 -0.03894702
0.037725009 0.125 -0.027097229
0.023878019 0.028063392 0.0066420157
-0.023056926 0.125 -0.046373934
-0.015889769 0.099999994 -0.010316111
-0.033872321 0.12074785 -0.043065075
0.016557282 0.078143701 0.021894375
-0.011121297 0.099999994 0.021070544
-0.049016617 0.099999994 -0.0021230727
-0.02715179 0.12500001 0.0031098789
-0.019283302 -0.014556638 -0.014600314
0.022611551 -0.032819971 0.0088356156
0.0082589965 -0.01636501 -0.023999982
-0.023513481 0.034810707 -0.0072734272
-0.010904364 0.071329303 0.023999978
0.037250794 -0.096083328 0.0041197268
0.011351376 -0.083281353 -0.034319989
0.047759138 0.125 0.012302289
-0.0048297513 0.099999994 0.046557285
-0.0068553854 0.11990859 -0.054540075
0.019780464 0.099999994 -0.050416484
0.024283223 0.0051341215 0.0059401887
0.035143666 0.1 -0.0089782309
0.027877983 -0.077545449 0.0076885298
0.045815274 0.125 -0.0013463106
-0.01970407 0.041451164 0.013871549
0.010062959 0.125 0.012024377
-0.0020428263 -0.065066896 -0.023999982
-0.0043190736 0.02358575 -0.023999985
0.024732891 0.014748571 0.0051613403
-0.030285468 0.125 -0.017025966
-0.042441987 0.125 -0.032452472
-0.020352582 0.053136658 0.012748289
-0.023881085 0.042989589 0.0066367439
-0.0080835195 -0.099999994 0.027220827
0.042336103 0.125 0.01014168
0.024705701 0.060831752 0.0052084392
-0.023376741 0.099999994 -0.0078128679
-0.024125699 -0.030339614 0.0062130601
-0.022026746 -0.048469618 0.0098485537
-0.029638328 0.099999994 -0.016756754
0.018626973 -0.099999994 0.018326087
-0.0020410549 0.11675523 -0.054697677
0.0089482432 0.125 -0.019906383
-0.045677073 0.11709609 0.030227246
0.035275087 0.099999994 0.016077893
0.041645739 0.1209189 -0.035852972
-0.025154529 0.030180508 0.0044310759
0.024094593 -0.026755415 0.0062669124
0.029869249 0.081448935 -0.0010649171
-0.0228708 0.10068309 -0.049728863
0.020522237 0.08871717 0.017254405
-0.04651504 0.099999994 0.013988816
-0.0025754571 -0.044112269 0.023999985
0.05079155 0.099999994 -0.020421272
-0.023683716 0.099999994 -0.020126726
-0.013126614 0.076865934 0.02451955
-0.037306543 0.099999994 -0.030925289
-0.0069150412 -0.05891991 0.023999982
0.033262767 -0.085691601 -0.011027185
0.049111497 0.125 -0.020356804
-0.021057179 0.099999994 -0.027539724
-0.0097165685 0.099999994 0.010623362
0.0047606817 0.093157321 0.026399981
-0.044170406 0.10506809 0.032329805
-0.015106382 0.0071993386 -0.021834947
0.050945576 0.1 -0.0088117151
-0.022976557 -0.089006066 0.028843425
0.0034253597 -0.070953302 -0.023999978
-0.0067325826 0.125 0.01466584
-0.0022194963 -0.099999994 0.011631113
0.027224569 -0.048677698 -0.00084566232
0.023995157 0.125 -0.040570963
-0.052680872 0.099999994 0.0034005418
-0.015160073 0.125 0.040929623
0.00043773558 -0.057524569 -0.02399998
-0.021498257 -0.077946141 -0.020806085
-0.019674011 0.099999994 0.02705062
0.021545436 0.099999994 0.037730552
-0.012115818 -0.099999994 -0.017148869
-0.022694634 0.099999994 0.005416167
-0.036990907 0.099999994 -0.037999582
-0.019054055 0.079216391 -0.018857054
0.024180036 -0.099999994 0.012860868
-0.054704808 0.10861462 0.0018228665
0.043162838 0.10391416 0.033985391
-0.021607261 0.10553474 0.050351217
0.014447046 0.125 0.01615282
0.051655725 0.099999994 -0.014458174
0.031295262 0.099999994 -0.026094234
-0.029467443 0.099999994 0.0034799026
0.0069072191 0.099999994 0.038236465
0.030750442 0.1 0.0077809161
7.0672482e-05 0.099999994 -0.038586605
-0.024929363 0.099999994 0.038908847
0.048850812 0.125 -0.0078202346
0.019333281 -0.083055198 0.034320001
0.0083255479 -0.05108127 -0.023999982
0.019901793 -0.097447909 0.034169085
-0.023941826 -0.013651271 -0.0065315086
