# .PCD v0.7 - Point Cloud Data file format
VERSION 0.7
FIELDS x y z
SIZE 4 4 4
TYPE F F F
COUNT 1 1 1
WIDTH 1380
HEIGHT 1
VIEWPOINT 0 0 0 1 0 0 0
POINTS 1380
DATA ascii
0.21345451 -0.34798393 -0.015454352
0.23945057 -0.32343298 -0.018732652
-0.68979788 0.32739931 -1.0392582
-0.45289531 -0.07203114 -0.82832807
0.26768619 -0.31535459 -0.016714931
-0.63772285 -0.33380827 -0.55944151
-0.5106566 -0.30196211 -0.015359759
-0.36028975 0.49477029 -1.1147864
0.27583066 -0.30759427 -0.019509792
-0.50126487 0.47093678 -1.0377824
-0.52422571 -0.36641747 -0.74280947
-0.026240341 -0.35850555 -0.33910087
-0.33958751 0.54497266 -0.45550674
-0.10197133 0.49380249 -0.83369946
0.23181888 0.060379416 -0.019494295
0.33291984 0.091002136 -0.014432073
-0.67048717 0.28655636 -1.0375783
0.36599043 0.16576463 -0.019999206
0.33818066 0.20310742 -0.0171372
-0.020187259 0.096971855 -0.61271954
-0.37954485 0.58497262 -0.66098064
0.38578248 0.51414883 -0.019667268
0.55016637 0.52091873 -0.012673974
0.11315502 0.5304929 -0.011089563
-0.29794148 -0.17214555 -0.62940073
0.48054838 0.5536086 -0.014296621
-0.60331655 0.46131727 -1.0112388
0.28089905 0.56744117 -0.011329234
0.32997918 0.56260431 -0.017575502
0.38948911 0.56480277 -0.01380229
0.37575731 0.5774346 -0.010145605
-0.76691335 -0.37680763 -1.3304479
-0.64826411 0.57047898 -0.94749361
-0.0020441152 0.45428717 -0.43306077
-0.56781054 0.62146246 -0.044600457
-0.60857874 -0.41172743 -0.0060998499
-0.61385727 -0.35795397 -1.0313615
-0.98699605 -0.44640917 -1.1175487
-0.60890353 0.5581224 -1.1094592
-0.66851652 -0.3463946 -1.1623173
0.2067246 -0.38981146 -0.00089981407
0.25912058 -0.38823169 -0.0015256703
-0.74921966 0.53756189 -1.2545667
-0.4639321 -0.48767656 -0.50113183
-0.5099169 -0.36843124 -0.0033294857
0.4575519 -0.36852545 -0.0033536255
-0.75631315 -0.38017744 -1.0056589
-0.20991352 -0.4319365 -0.79424405
-0.14262342 -0.32110429 -0.58256567
0.58503246 -0.3418358 -0.0022169352
-0.61755025 0.49959868 -1.3011116
-0.33069366 -0.31050384 -0.0049338639
-0.33403569 -0.4883461 -0.41318482
0.25140548 -0.30000171 -0.0035232306
-0.35645688 0.1599862 -0.38294131
-0.12842807 0.42478016 -0.62366259
-0.55207181 0.55071962 -1.1023102
-0.33291161 -0.030770004 -0.85597456
-0.54955709 0.4224489 -0.72570145
-0.58916187 0.014544692 -0.72559381
0.28804135 -0.10525146 -0.0016605258
-0.4922286 -0.12835237 -0.98446584
0.22434735 0.010701284 -0.0033233464
0.27907535 -0.0025108894 -0.38417542
-0.55500191 -0.44041356 -0.95729285
0.38531724 0.046126127 -0.0033862591
-0.10197133 0.49380249 -0.83369946
0.32630509 0.2060672 -0.007599324
-0.059058189 -0.37835371 -0.33227727
-0.47532189 -0.13605995 -0.98228371
0.28541985 -0.025137886 -0.38548017
0.23967123 0.37007535 -0.0054631531
-0.31780934 0.43040973 -0.0026710629
0.68498874 0.49246383 -0.0048606396
-0.6484952 -0.32378688 -1.1043746
0.058841497 0.57881916 -0.71002686
-0.67585039 -0.33993655 -1.3422499
-0.29794148 -0.17214555 -0.62940073
0.33637026 0.54536813 -0.006664685
-0.60477769 0.52861178 -1.2125163
-0.92998081 0.59618831 -0.91233045
-0.55380893 0.59560609 -0.91356367
-0.28091025 0.23907244 -0.85995662
0.56900877 -0.40223658 0.0048481226
-0.96743226 0.54620844 -1.1505541
0.1933513 -0.38338962 0.0044012666
0.18302435 -0.35694006 0.009973079
0.19564533 -0.34096053 0.0042117983
-0.37978831 0.05028262 -0.84921002
0.26928571 -0.32278094 0.00057783723
-0.87969142 0.49453411 -1.1630222
0.37879834 -0.30869922 0.00356704
0.44847661 -0.30099988 0.0041800588
-0.4310779 -0.43866587 -0.69977552
-0.99790841 -0.43952763 -1.012115
-0.80368495 -0.28592098 0.0095326453
-0.85139167 0.4090867 -0.91641462
0.46421486 -0.20492899 0.008530736
0.3335126 -0.18742041 0.00040197372
0.47942674 -0.12169373 0.005079627
-0.43622467 0.34198421 -0.80646896
-0.26918766 0.5298062 -0.80285817
0.29067203 0.32348472 -0.37178797
-0.93005693 0.46766007 -0.94163966
-0.33840206 0.56803876 -0.38607207
0.2077229 0.017317429 0.0098376274
-0.35113698 0.56723762 -1.0248666
-0.37425166 -0.46180779 -0.99866402
-0.3670024 0.32130316 -0.81594253
-0.54941356 0.53788662 -0.79431617
-0.71277559 0.5767653 -1.3381907
0.374789 0.15966165 0.0048793554
-0.11638263 0.52070761 -0.84110826
0.287709 0.17977172 0.0058839731
-0.41449627 0.31071502 -0.80757678
0.31112272 0.23727158 0.0020518303
0.00073230267 -0.37361479 -0.64476162
-0.37233162 0.52979678 -0.9769659
0.056507617 -0.30024055 -0.37599799
-0.42000297 0.54756749 -0.3851997
0.26530284 0.28223175 0.0029203892
0.23698378 0.40342295 0.0059984922
-0.6737386 0.55858201 -1.2727915
-0.33151045 0.52066433 -0.73145145
0.41959912 0.5347268 0.0096644759
-0.12600195 0.28126851 -0.60604262
-0.45178157 0.31100523 -0.81030118
-0.3681812 0.58996463 -0.59191668
-0.56136489 0.57287407 0.0055074804
0.21313488 0.57178891 0.0057995319
0.38874772 0.57431573 0.0052577108
0.39197427 0.57039148 0.0072731078
-0.44340429 0.6125955 -0.72823256
-0.37243152 0.52399564 -0.6470468
-0.32485324 0.01002425 -0.93947375
0.36975348 0.60261822 0.0045715868
0.4722425 0.2838887 -0.20192015
-0.83080482 0.57920873 -1.1090975
-0.4746753 0.29327151 -0.86021483
0.18884471 -0.37623951 0.016009666
0.28956521 -0.3751182 0.019469768
-0.56450504 -0.37190634 -1.0293312
-0.41905972 0.59820712 -0.55999136
0.18379545 -0.36920267 0.011515316
0.19653809 -0.3663426 0.016978443
-0.82107067 -0.39141807 -1.2359817
0.18575895 -0.33972424 0.013364375
0.20525557 -0.32131907 0.018135458
-0.85679662 -0.36888516 -0.95006871
-0.89653707 0.55801219 -0.95936692
0.23085192 -0.31664288 0.017376244
-0.53865778 0.084674895 -1.086241
0.23547632 -0.29883474 0.015794396
-0.32007849 0.58813113 -0.72029722
0.082455866 0.0088144541 -0.60067368
0.27138683 -0.44920292 -0.3699877
0.27068746 -0.033432446 0.01153934
-0.5189473 0.60100883 -0.82764447
0.32444826 -0.0025108892 0.01652652
0.48519874 0.0014754236 0.011443555
0.37575731 0.5774346 -0.010145605
0.20291251 0.030736864 0.016857132
0.22183943 0.069434196 0.015571758
0.46660656 0.12652782 0.019172817
0.36273536 0.50652683 -0.27089673
0.40331703 0.59581196 -0.37636408
0.27829629 0.28844175 0.012792915
0.32444826 0.30829042 0.01652652
-0.35708392 0.32603413 -0.83661669
0.23468018 0.3428688 0.019548774
-0.50554931 -0.19592692 -1.0614339
0.10369345 0.13212615 -0.55844188
0.25040448 0.46543348 0.011901125
0.36255628 0.47462988 0.015946299
0.47515512 -0.40643579 -0.071808219
-0.66722453 -0.3327468 -1.0287713
-1.0154817 0.54072064 -1.1791394
0.36527762 0.52196115 0.012284502
-0.58678472 0.070772827 -1.0446726
-0.63934988 0.57407492 -1.2785997
-0.46389729 0.54192859 0.012109071
-0.46136785 0.22592077 -0.83923185
-0.55099267 0.1568667 -1.0555091
-0.44020727 0.29750067 -0.80117601
-0.47544008 -0.19559827 -1.0262331
-0.50438529 0.57593775 -0.79430163
0.65300572 0.57546115 0.01416105
-0.51125824 0.51750517 -1.0168744
0.041954637 0.040357262 -0.20334171
-0.65064263 0.63084066 0.012297347
0.15280524 0.49899322 -0.30597949
-0.81816661 0.56404686 -1.1532973
-0.39259461 -0.13899215 -0.83045661
-0.63536268 -0.33629972 -1.1811845
-0.26918766 0.5298062 -0.80285817
0.55089957 -0.42817515 0.021466732
-0.025833428 -0.34582394 -0.57588464
-0.47995439 0.59065932 -0.1415199
-0.12222469 -0.41060501 -0.89363813
-0.49533576 0.089405611 -1.0245699
0.55903822 -0.3585647 0.021334976
-0.40538478 -0.38207576 -0.9778496
0.17704436 -0.34207636 0.025246739
0.26095629 -0.34431171 0.024643183
0.11424935 -0.30107903 -0.34492809
-0.31984308 -0.3330152 0.021177709
-0.55140388 0.53107178 -1.3247437
0.25161475 -0.29959825 0.021486133
-0.42915025 0.2912513 -0.82410449
-0.78988284 0.54801923 -1.4695244
0.092449687 -0.18357484 0.02921322
-0.057260752 0.021668062 -0.62851113
-0.59741133 0.48952192 -1.2056551
0.42791811 -0.062064085 0.021421909
0.24348152 0.024587706 0.020375431
0.19369531 0.030549765 0.025832415
0.39206702 0.052056756 0.027229071
0.20332056 0.062257826 0.028835356
-0.72409326 -0.36333695 -1.1984208
-0.50848371 -0.14957391 -0.95608979
-0.34350121 -0.454346 -0.26001555
0.23246849 0.11978342 0.029436141
0.36119029 0.15474139 0.026815504
-0.90847433 -0.31663066 -1.466818
-0.37711322 0.45450109 -1.209287
-0.16488332 -0.085892677 -0.62941533
0.42821729 0.24425662 0.024869531
0.31968784 0.25149143 0.025295526
0.25606468 0.32516164 0.027987987
0.19242346 0.35142398 0.021092817
0.39222044 0.35451567 0.023753107
0.18206608 0.39405796 0.024858385
0.19780791 0.45487791 0.023762912
-0.43622467 0.34198421 -0.80646896
-0.26586339 0.4610346 -0.65765905
-0.67004216 -0.30829835 -1.0596499
-0.47189561 0.58717942 -0.27965599
0.10870847 0.53930342 0.024846643
0.26214963 0.5575912 0.023845091
-0.47265697 0.56034327 0.029766113
0.24606004 0.56591594 0.021007299
-0.5816021 -0.32395273 -1.0859265
-0.27482906 0.48980561 -0.75303322
-0.44059798 0.48194075 -0.38155884
-0.60145712 0.54374897 -1.1027069
0.099442899 -0.3282392 -0.2251839
0.46208286 0.58765626 0.026929706
-0.68398863 -0.45513058 -1.1172844
0.025658309 0.53498012 -0.22579877
-0.26887566 -0.050376024 -0.80214143
-0.87742126 0.52361202 -1.5607953
0.017113954 -0.36743298 -0.29178512
-0.39363971 0.65107459 -0.3280617
-0.75631315 -0.38017744 -1.0056589
0.6723541 -0.36548167 0.030835807
-0.30847877 -0.18705404 -0.80840361
0.72008061 -0.3528223 0.034910977
-0.76458389 -0.33714968 0.036093712
0.22869372 -0.32009581 0.0345034
-0.27485102 0.33314762 -0.54675257
0.22513291 -0.31247455 0.036191046
0.20508888 0.59081161 -0.4300558
-0.28870109 -0.301364 0.031392157
-0.48872948 -0.29323697 0.033830166
-0.63886094 -0.32686943 -1.2192968
-0.66887891 -0.33182502 -1.2576401
0.22541559 -0.28993458 0.033217549
-0.37792379 0.57825887 -0.53795493
0.59169453 -0.27428716 0.033734202
0.09124627 -0.26131177 0.0396308
-0.4933117 -0.14499556 -1.0118442
0.26852387 -0.24363625 0.035988241
-0.63406557 0.5474267 -1.1487159
0.15163982 -0.17272185 0.038611278
-0.61261451 -0.0025108892 -1.030591
0.15265045 -0.010103405 0.039499551
0.59039247 0.019859463 0.039486527
-0.1843058 0.072462499 -0.65512401
0.61998641 0.072715253 0.033072352
-0.068386078 -0.29239291 -0.54940397
-0.39517635 0.60977185 -0.55220973
0.094991058 0.19042647 0.035070807
-0.073533595 0.19927895 -0.59052783
-0.18199021 -0.3697229 -0.54718792
0.6409539 0.475326 0.037364721
-0.22581665 -0.3179211 -0.57367015
-0.25450611 -0.16010571 -0.62632805
0.66153228 0.51079595 0.030583382
-0.45160717 0.47987217 -1.0534722
-0.34627956 0.46503508 -1.1213546
-0.55241752 -0.18467338 -0.68950689
0.69451594 0.54625738 0.037208974
-0.15380326 0.28315637 -0.62510741
-0.67689717 -0.40246353 -1.270232
-0.74611229 0.21563759 -1.0399311
0.055729985 -0.099049263 -0.53566957
-0.81149578 0.48825791 -0.85776067
-0.40212989 0.58136231 -0.73860526
0.37709665 0.57384992 0.036829799
-0.45650771 -0.19369879 -0.82883382
-0.27024421 0.56625718 -0.49935922
-0.27429596 -0.42017823 -0.81704009
-0.57912105 0.61011016 -0.85611892
-0.63464296 0.63616884 0.039113313
-0.72698456 0.55014777 -1.2073565
-0.68064904 0.51756537 -1.1425269
-0.4242242 -0.36827403 -0.86235368
0.41959912 0.5347268 0.0096644759
-0.55427885 0.56710905 -0.90114605
0.43039054 -0.064895354 -0.063088149
-0.70115376 -0.30348849 -0.99658018
0.36599043 0.16576463 -0.019999206
-0.59211373 -0.396056 0.042582303
-0.76660389 0.54684436 -1.3592253
-0.37132055 0.5061447 -0.80312496
0.3299616 -0.37017938 0.049716502
-0.66988754 0.5460332 -1.1151624
0.17012504 -0.34446156 0.040450662
0.43516633 0.44101793 -0.26044047
-0.59226096 -0.30422795 0.041963667
-0.22230127 -0.41630417 -0.52216136
0.36599043 0.16576463 -0.019999206
0.25411144 -0.36714309 -0.41304329
-0.88965559 -0.28957868 -1.1343329
0.24858519 -0.47911978 -0.066538572
0.010651737 -0.34859529 -0.28637621
0.15168512 0.064865947 0.04341796
-0.28527495 -0.34456146 -0.27380222
-0.34759539 -0.33701718 -0.82276106
0.09508571 0.15451476 0.04891178
-0.89201576 0.51006699 -1.1247146
-0.47120082 0.60332924 -0.42048639
-0.41125154 -0.1296615 -1.0384135
-0.70243037 0.59193552 -0.74892664
0.17580098 0.40911534 0.046937406
-0.071213633 -0.35510355 -0.28046304
-0.72690737 0.57646108 -0.55120349
-0.41494611 -0.43378669 -1.1328872
0.051476419 -0.3693133 -0.27964205
-0.38452879 -0.31986335 -0.12776518
-0.31577489 -0.39577001 -0.94220924
-0.72083008 -0.088546902 -1.0440836
-0.26276034 0.20031787 -0.7451849
-0.36197677 -0.37757647 -1.0919695
-0.73650193 -0.3277961 -1.3914109
-0.841501 0.5573976 -1.360153
-0.24044971 0.16958085 -0.64869523
0.039363176 0.53380072 0.049788475
0.47675419 0.53556538 0.049354345
-0.63317579 -0.38330171 -0.98296416
-0.87221128 -0.42590109 -0.93639368
-0.49774575 -0.38170844 -0.70662391
-0.52144265 0.53148401 -1.0879095
-0.46031266 0.60474062 0.042926431
-0.89377052 -0.29741025 -1.5128003
-0.42638516 0.6417526 0.042073905
-0.59519851 0.524526 -1.1469911
-0.58755732 0.58333778 -0.45502645
-0.34517655 0.11365929 -0.76433134
-0.77396488 0.58317327 -1.3511099
-0.74036056 -0.33423573 -1.1246351
-0.097034946 -0.41611654 -0.36283284
-0.2267347 -0.30894467 -0.67617327
-0.46900117 -0.32511607 -1.1606109
-0.49839944 -0.43487746 -0.45739633
-0.034184955 -0.34082291 -0.33666578
-0.31006989 0.0012335777 -0.85228777
0.3379665 -0.41884172 -0.27399725
-1.0626234 0.48467124 -1.1090789
-0.41774032 -0.30822331 -0.82910156
-0.02221225 0.4053326 -0.19755974
0.56115627 -0.05889225 0.059856474
0.58304602 0.018726766 0.05810529
0.11234525 0.034599125 0.059331536
0.19495833 0.57089889 -0.28542736
-0.57278883 0.50929427 -0.95612061
0.4367134 -0.37795284 -0.13354725
0.62216401 0.40979111 0.058749855
-0.21120247 -0.39862961 -0.54476321
0.61922157 0.42622358 0.057412863
-0.76520509 0.33036575 -0.95814478
-0.8528564 0.52253473 -1.268725
-0.52064538 0.47495741 -1.269017
-0.052435905 -0.3645266 -0.81786442
-0.19293267 -0.27295864 -0.66933417
-0.46770546 0.53388596 0.050876528
-0.47700462 0.29456681 -0.75609726
-0.67380667 -0.19612035 -0.95275915
-0.01700756 0.54624945 0.056901231
0.40356693 0.54708785 0.053494573
-0.30539528 0.57406074 -0.68844295
0.096369147 0.55020964 0.052171171
-0.083498538 0.29083723 -0.64391196
0.79725665 0.55134612 0.05018127
0.34799188 0.56246126 0.053002238
-0.53863955 0.5738678 0.052542597
-0.57187188 0.50577992 -1.3617231
-0.049566835 0.58799422 0.059028
0.055241406 0.58917123 0.052536409
-0.59313345 0.059851643 -1.0012507
-0.50981271 -0.34098381 -1.1129723
-0.82031965 0.501127 -1.2976685
0.16806418 -0.38133949 0.067714572
-0.10996923 -0.36982602 -0.57439429
-0.56781054 0.62146246 -0.044600457
0.15681344 -0.34663656 0.061658561
-0.16736083 0.56024647 -0.71259797
0.6723541 -0.36548167 0.030835807
-0.67968327 -0.016642034 -1.0300213
0.3396883 0.41754812 -0.19941247
-0.4585093 -0.24082008 -0.99074394
-0.80685461 0.6029557 -1.0898045
0.20513552 -0.29953441 0.061224222
-0.67157346 0.32923907 -1.0139911
0.58489966 -0.29791129 0.065091372
-0.24231189 0.41699624 -0.54004049
-0.74703985 -0.035016626 -1.0118747
-0.77862877 0.54478753 -1.1992638
-0.50154996 0.55247891 -1.2085074
-0.60531104 0.1960344 -1.0107291
0.22720522 0.23006383 -0.26958573
-0.16417152 0.27791566 -0.69935477
-0.66608226 0.49476969 -1.1946018
-0.6356734 -0.092358999 -1.0140216
0.35882941 0.27002862 0.06273821
-0.33124304 0.28510898 -0.86218429
-0.51453221 0.076770157 -1.0189965
-0.87761343 -0.30865914 -1.1983393
0.1025352 0.17665464 -0.54118294
-0.43776822 0.5409044 -0.29113346
-0.64748907 -0.17490017 -1.0106827
0.1793043 -0.29975194 -0.26025215
0.56113178 0.49396777 0.069107056
-0.57325184 -0.29007298 -0.65880716
0.17112353 0.58630228 -0.48554483
-0.1977053 -0.38178301 -0.62113506
-0.21090046 -0.23820499 -0.62590277
-0.60597622 0.33479047 -0.62074304
-0.5489701 -0.34475231 -1.1727145
0.18868354 0.56609601 0.069471717
-0.56339526 0.52911127 -1.3178499
0.040067971 0.53940457 -0.53810865
0.24699774 0.57651222 0.0668156
-0.26724154 -0.18497194 -0.51163733
-0.43000323 -0.29587656 -0.79800802
0.28778398 0.61336982 0.063448966
0.19296984 0.63514245 0.060651302
-0.62732381 0.64238203 0.060399458
0.1630771 0.64283222 0.0625875
-0.663885 0.57094342 -0.6396203
0.063955836 0.57242489 -0.56490207
-0.78783119 -0.38007712 -1.2835407
-0.56398523 -0.42650104 0.074086785
-0.21743202 -0.38998905 -0.89390659
-0.44849205 0.53055489 -0.99974817
-0.45195138 -0.35636598 -0.88009077
-0.3791483 -0.11563079 -0.91419619
-0.70987922 -0.39397135 0.074545436
-0.036182344 -0.39184576 0.073744357
-0.015914619 -0.39938504 0.074967355
-0.16285096 -0.15689354 -0.72984916
-0.53802097 0.15693808 -0.83957946
0.17693347 -0.38321483 0.077429913
-0.044468641 -0.37158731 0.078809157
0.45418677 -0.37714636 0.070565879
-0.32693848 -0.34407598 -0.58477807
0.53986442 -0.3595041 0.07211411
0.54535949 -0.34250084 0.079127133
-0.60991722 -0.38055912 -1.1348244
-0.30711538 0.55183303 -0.9677732
0.16176167 -0.29671454 0.074325085
-0.46935034 -0.27323669 0.072829723
-0.33781934 0.10590202 -0.41152912
-0.15114079 0.045583665 -0.7580601
-0.57121652 -0.19084799 -0.56535083
-0.53213716 0.33003414 -1.0494281
-0.92668784 0.61126125 -0.96717578
0.17235589 0.076577783 0.070180163
-0.54291642 -0.09858641 -0.75730336
-0.59355676 0.57284451 -0.96215922
0.025710762 0.5348925 -0.26294315
0.36788088 0.43154109 0.072010577
0.077574015 -0.29854071 -0.41494757
-0.39968416 -0.37558326 -0.65286016
-0.53180236 0.46900105 -1.0486127
0.74512088 0.52150923 0.077994138
-0.76224935 0.44966263 -1.0313159
0.31595722 0.56941497 0.077244014
-0.53193814 0.5514065 -1.1840909
0.25757954 -0.31395772 -0.37320605
0.62071013 0.57808566 0.076595783
-0.08801955 -0.38309717 -0.30892429
0.37879834 -0.30869922 0.00356704
-0.67004216 -0.30829835 -1.0596499
-0.91664153 0.61490661 -1.2854998
0.41960725 0.56789857 -0.092061087
0.0099492855 0.4794451 -0.060910042
-0.040875793 -0.38737506 0.086359769
-0.40215427 -0.047875188 -0.83436722
0.55362368 -0.38923091 0.081999391
0.27538362 -0.37825981 0.085575834
-0.98098546 -0.26688612 -1.3739431
-0.88854575 0.4391641 -0.91463864
0.40035182 -0.36836058 0.087275073
-0.38201308 0.36471432 -0.83262026
0.18826249 -0.35006142 0.084194779
-0.021364808 -0.34492952 0.084554315
-0.017831177 -0.34175733 0.087173447
0.13524526 -0.34813219 0.086010247
-0.26887566 -0.050376024 -0.80214143
-0.0053514838 -0.33826461 0.08698386
0.16561574 -0.31361261 0.080339521
-0.64467734 -0.30444002 0.080049962
-0.77934384 0.31139317 -0.95110059
0.58617532 -0.30050927 0.081236839
-0.67786229 0.49529511 -1.2906061
0.14656055 -0.29553032 0.084497899
0.5282293 -0.08567661 0.089157403
-0.54860485 0.53673619 -1.0786664
0.55359292 -0.016977578 0.086574197
-0.9739989 -0.29940456 -1.2566006
-0.53149283 0.59779519 -0.43305799
-0.59781045 -0.38176191 -0.98626912
-0.22779658 0.31979924 -0.58041859
-0.51887757 0.41421318 -0.99138057
0.71059752 0.3215605 0.087245286
0.14579341 0.34595788 0.081377581
0.52577287 0.34449115 0.087679863
0.58411896 0.36427495 0.087613046
-0.32007778 0.59851187 -0.65236175
0.34453124 0.52902675 0.080841497
0.14296782 0.63597935 -0.1682108
-0.73729622 -0.35491413 -1.4979513
-0.54064763 0.44793987 -1.036788
-0.27581704 0.55895597 -0.66289937
-0.4117949 -0.33645648 -0.80360258
0.50100583 0.55659986 0.083730325
0.6345098 0.55617535 0.085585177
-0.68800128 -0.30283362 -0.97901487
-0.44251597 0.34514314 -0.79030359
-0.89431739 -0.40826848 -1.5636551
-0.059880082 0.095237181 -0.49059084
0.6168344 0.59061491 0.082203344
-0.60079277 -0.3389793 -1.2145232
-0.69461781 0.15577385 -0.97975934
-0.54860485 0.53673619 -1.0786664
-0.67585039 -0.33993655 -1.3422499
-0.37081006 0.6202175 -0.8370353
-0.56197274 0.49428824 -0.84890175
0.32444826 0.30829042 0.01652652
-0.68497455 -0.41983685 0.097945623
-0.47328955 0.56047344 -0.056365699
-0.71903759 0.55235183 -1.1906147
-0.4080171 0.00038515031 -0.80159414
0.39241043 -0.37011948 0.09170118
-0.59704739 -0.36132684 0.09898442
-0.04408139 -0.36546057 0.097151473
-0.84646916 0.5358693 -1.2080791
-0.62647229 -0.34366608 -1.1861644
0.084124714 -0.29819605 -0.37923023
0.18784572 -0.03210701 0.080406383
-0.21120247 -0.39862961 -0.54476321
-0.01700756 0.54624945 0.056901231
0.093277186 -0.37002105 -0.25794506
0.096476674 -0.31264001 0.093582228
-0.30337805 0.33982578 -0.83983743
-0.54229689 0.53032917 -0.99051833
0.055752084 0.23509978 -0.5357486
-0.69033647 -0.27676976 0.093297496
0.58617532 -0.30050927 0.081236839
-0.19618347 0.11468321 -0.62988508
0.53608257 -0.1106309 0.095425606
-0.14450808 -0.4132151 -0.44138515
-0.68976635 -0.3457759 -0.97037888
0.01359221 -0.024799548 -0.53266382
-0.1025168 0.56229913 -0.54227686
0.22875458 -0.43015671 -0.48793104
0.36527762 0.52196115 0.012284502
0.58892703 0.30765775 0.097263455
0.60406315 0.30370194 0.094726503
0.20309979 -0.29709578 -0.53745985
0.41040829 0.59101486 -0.31514144
0.010278344 -0.34276354 -0.23481074
-0.570979 0.55976325 -1.0470464
-0.010893047 -0.34053233 -0.25152764
-0.5358215 0.36593312 -1.0604957
0.18784572 -0.03210701 0.080406383
0.018327683 0.57417321 -0.57058448
0.28431195 -0.30161601 -0.020472825
-1.0389701 0.50202841 -1.4102745
-0.5055896 -0.31566048 -1.2573485
0.40402004 0.54245895 0.099748909
0.6168344 0.59061491 0.082203344
-0.72078001 0.55533111 0.098783493
0.11933136 0.55802006 0.09117344
0.0022420734 0.049269795 -0.57523739
-0.42502308 0.56040382 0.095125258
-0.28697863 0.36176658 -0.52517939
0.32809684 0.57415545 0.095490128
-0.65466303 0.58683205 0.09786281
-0.15438017 -0.24095935 -0.63175297
-0.26083028 -0.36038184 -0.78507906
-0.31556702 0.60066253 0.097934067
-0.37132055 0.5061447 -0.80312496
0.52577287 0.34449115 0.087679863
0.26366311 -0.41206771 -0.1222986
0.59329003 -0.41882959 -0.12141716
0.57754254 -0.38020754 0.10568272
-0.57114732 -0.36521322 0.10031587
-0.75502938 -0.4054305 -1.3531444
0.60996556 -0.36429092 0.10377896
-0.70504332 -0.35588092 0.10785367
0.58617532 -0.30050927 0.081236839
-0.74299687 0.54167533 -1.3948675
-0.023849905 -0.34365022 0.10179393
0.13693389 -0.33235508 0.10234472
0.15265045 -0.010103405 0.039499551
-0.40255263 0.2520988 -0.83090401
-0.41774032 -0.30822331 -0.82910156
0.05817169 -0.321531 0.10205798
-0.26125497 -0.24603584 -0.78462243
-0.10325646 0.57429284 -0.72102851
-0.37235829 -0.3364315 -0.81942046
-0.24502209 -0.31646878 -0.59533656
0.53476524 -0.06810829 0.10352129
-0.7214908 0.57540017 -1.0151756
0.19333255 -0.035193264 0.10340317
-0.76720631 -0.29311776 -1.1881443
-0.50633043 0.61464036 -0.69014043
-0.21444201 0.5454188 -0.72698152
-0.36214307 0.30510932 -0.83931577
0.20291251 0.030736864 0.016857132
-0.48454225 0.5454368 -1.0127234
0.57235146 0.31518546 0.10540003
-0.59387469 -0.3757447 -1.1835146
0.44449028 0.3852585 -0.23892182
-0.16983798 -0.29830757 -0.58660913
-0.58845258 0.1246718 -0.57776028
-0.18659508 0.5281145 -0.57949865
-0.70348984 -0.34997693 -1.3519088
0.093191922 -0.34579551 -0.55364168
-0.50021678 0.29438403 -0.56495249
-0.73054409 0.49885941 -0.6438663
-0.36062941 0.55340517 0.10509389
0.30815363 0.55341375 0.10509931
-0.49531239 0.37440106 -0.75944066
-0.63796401 -0.33953553 -1.0059899
0.41959912 0.5347268 0.0096644759
0.13436574 0.56714869 0.10837823
-0.23274434 0.31251445 -0.7203424
-0.1154995 0.57343787 0.10426134
0.32936412 0.57409632 0.10866876
0.61892223 0.57762033 0.10154021
0.3938784 0.58550549 0.1059808
-0.41680032 0.33588833 -0.77558291
0.010741528 0.33081916 -0.51203096
-0.40719938 -0.33186692 -1.1094131
-0.67014408 -0.35286361 -1.2313489
-0.63042819 0.61092162 0.10334523
0.17433631 0.62371075 0.10365134
-0.58734399 0.43503508 -0.84504008
-0.92516911 0.50696504 -1.2744232
-0.58093756 -0.39473045 0.11925087
-0.47048321 0.59159338 -0.91981876
0.52822435 -0.39431262 0.11909848
-0.60163975 0.036776252 -1.0451224
-0.19991112 0.20548844 -0.67020929
-0.70389009 -0.33296752 -1.3845456
0.010696277 -0.29849935 -0.51170242
0.041331291 -0.35384703 0.11217687
0.10597068 -0.34870976 0.11049546
0.020232558 -0.33523315 0.11254267
-0.68731052 0.22623199 -1.0025078
-0.59313345 0.059851643 -1.0012507
-0.5012778 -0.18800074 -0.84808946
0.02978158 -0.31233394 0.11667123
0.054397225 -0.31061226 0.11002928
0.097514987 -0.3139309 0.11178958
-0.61846024 -0.32884151 -1.0498557
-0.5489701 -0.34475231 -1.1727145
0.02017045 -0.3095907 0.11478089
0.28998601 -0.30840471 0.11332482
-0.7144236 0.54900277 -1.2665009
0.77081585 -0.30428076 0.11747459
-0.54963446 -0.40091318 -1.1609914
-0.71397316 -0.37241578 -1.2119499
-0.31154338 -0.38812575 -0.48722059
0.52883106 -0.035841897 0.11773831
0.14206222 0.56418371 -0.52873278
0.022512957 -0.43878365 -0.56220406
-0.59931433 -0.34566039 -1.0284604
-0.70608288 0.13274381 -1.0128956
-0.075026631 -0.43866599 -0.56219661
0.55389524 0.32410562 0.11941344
-0.21475223 0.21086468 -0.59656638
-0.12855798 -0.29838622 -0.59833127
-0.76201868 0.53485256 -1.2542802
-0.19079736 0.52696997 -0.78897673
0.036875278 0.45122105 -0.098882854
-0.16167769 -0.031121429 -0.69976878
0.014620952 -0.18384764 -0.56302428
-0.67974234 -0.30114579 -1.0295347
-0.098659724 0.53496283 -0.61053115
-0.072418913 0.55788302 -0.60448885
-0.80244797 -0.36377272 -1.4763117
-0.4406541 -0.30007756 -0.78946972
0.29230568 0.56217349 0.11240856
-0.66887891 -0.33182502 -1.2576401
-0.69958335 0.29828718 -1.0233622
0.61364377 0.57009155 0.11468041
-0.6604954 0.039200693 -0.90612656
0.22089592 0.59855092 0.1100086
-0.41792536 0.48989218 -0.9245317
-0.31604642 0.23587614 -0.88436258
0.24858519 -0.47911978 -0.066538572
-0.53467864 0.16539498 -0.84293485
-0.42000297 0.54756749 -0.3851997
0.31732434 -0.33341491 -0.052998245
0.84323376 -0.39000881 0.12100571
-0.62580442 0.54962784 -0.83030123
-0.047881633 -0.36170453 0.12953873
0.10886654 -0.35036129 0.12395884
-0.030697763 -0.34339154 0.12424396
-0.28870109 -0.301364 0.031392157
0.52817076 -0.33033928 0.12706909
0.67283791 -0.33987105 0.12872225
-0.2620033 0.53948539 -0.79494387
-0.84869796 0.07382217 -0.89055479
-0.82105422 0.55280495 -1.2209728
-0.62717688 -0.24756876 -0.65237367
-0.69020534 0.31769872 -1.0006281
-0.69273913 0.53393584 -1.0453641
0.5215624 -0.13551068 0.12778842
-0.44823676 -0.42374384 -0.967619
-0.38987261 -0.37551194 -1.1282901
-0.17300493 0.55937153 -0.5187943
-0.055443019 -0.3592481 -0.31495091
-0.77745539 0.11230671 -0.96877104
-0.60481822 0.61250901 -0.65296555
-0.56756568 0.55112642 -1.1057069
-0.94659811 -0.32962656 -1.2244738
-0.33781934 0.10590202 -0.41152912
-0.69033647 -0.27676976 0.093297496
-0.098872364 -0.30879241 -0.59790683
-0.72183222 -0.42752641 -1.4084017
0.77081585 -0.30428076 0.11747459
-0.74045002 -0.33370841 -1.3701735
-0.30320364 -0.38483804 -0.82812023
0.43395573 0.31152108 -0.061673105
-0.66554248 0.27732912 -1.0099798
0.17210326 0.22479913 0.12214842
0.59169453 -0.27428716 0.033734202
-0.31490582 0.34867492 -0.51510978
-0.21585897 -0.36660254 -0.88114077
-0.71968162 0.57839352 -0.97531515
-0.33247197 -0.43016803 -0.31552336
-0.94704503 0.56456095 -1.2389704
-0.36827192 0.35884774 -0.85049903
0.53340358 0.52947003 -0.074929148
-0.40104729 -0.061208107 -0.96631491
0.13557476 0.64159548 -0.23185158
0.060617507 0.42408615 -0.25181502
-0.42067587 -0.32507595 -1.1463783
0.16176167 -0.29671454 0.074325085
-0.32941505 0.30105999 -0.8516528
-0.67380542 0.55884707 -1.189569
0.28998601 -0.30840471 0.11332482
-0.72499418 -0.41778237 -0.87390828
-0.25857267 -0.099496931 -0.60373616
-0.80743694 -0.39074486 -1.4478804
-0.42412865 0.53549439 -1.0043827
-0.11548671 -0.37821129 -0.76837355
-0.99511504 -0.34420061 -1.4732666
-0.478751 -0.013695229 -0.79313755
0.58068228 -0.41608956 -0.1515981
-0.3453449 -0.10650696 -0.80839121
-0.41559583 -0.011431992 -0.78797162
0.4988808 0.57167268 0.12975514
-0.33085597 -0.39236933 -0.33821297
-0.75813502 0.55985516 -1.2390469
-0.61080927 0.60007447 0.12481037
-0.43205202 -0.22447902 -0.85565585
-0.61548901 0.64207608 0.12619294
-0.19450873 -0.015464943 -0.59390688
0.26534414 -0.38105592 -0.10894716
-0.2493905 -0.0079209805 -0.88046801
-0.59741133 0.48952192 -1.2056551
0.15851986 -0.39948964 0.13521054
0.49343589 -0.38366389 0.1300367
0.55732745 -0.37770534 0.13274175
0.33012506 -0.29814106 -0.149665
0.51661366 -0.36374569 0.13903768
0.073145807 -0.34828112 0.13277033
-0.68926263 0.58853698 -0.5241704
-0.59375048 -0.44238585 -0.37224147
-0.362115 -0.33821613 -0.37423474
-0.59565157 0.040758241 -0.59630084
-0.46944112 -0.3977862 -0.56899619
0.042030513 -0.32058349 0.13855538
-0.51727057 0.63239276 -0.70560813
0.53919327 -0.29850334 0.1348545
-0.36078364 0.12728512 -0.39172187
0.19031316 -0.22200383 0.13781106
0.68266928 -0.22041231 0.1304199
-0.23812176 -0.22555621 -0.65509933
0.21299469 -0.11847293 0.13621533
0.56922412 -0.10261768 0.13863967
-0.58783948 0.59088689 -0.75893486
-0.86503422 -0.33764619 -0.94726682
-0.029613197 -0.4086597 -0.24469715
-0.7102617 0.63735652 -0.95521599
-0.28683698 -0.33359706 -0.87070799
-0.32287937 0.22373971 -0.55817914
-0.52346045 -0.36297858 -1.249621
0.5937506 0.13744992 0.13710359
-0.64528853 -0.3122125 -0.50545847
-0.51218569 0.37923837 -0.75835848
0.21245264 0.22589125 0.13535333
-0.59781045 -0.38176191 -0.98626912
0.56731802 0.24364522 0.13062966
0.17244211 -0.35360742 -0.51165164
-0.75772882 0.52090067 -1.1642439
-0.52304488 0.54597354 -0.75355488
-0.3977392 -0.31128404 -0.39894074
-0.56485367 0.57354271 -0.92773259
0.48676789 0.38621134 0.13441417
-0.35919207 -0.35282671 -1.0726202
-0.17939693 -0.047122389 -0.6135329
-0.47460082 0.50108415 -0.89747357
0.1289226 0.54392862 0.13070306
0.33698764 0.54646975 0.13235347
-0.8143025 0.55917633 -1.1321654
0.62358958 0.55838501 0.13965219
0.18423861 -0.36880994 -0.50009185
0.54329109 0.56735194 0.13077086
-0.5568279 -0.3014659 -1.0823133
0.32952583 -0.32002226 -0.22539425
0.010718912 0.01817001 -0.51186758
-0.51176572 -0.3920545 -0.86773098
-0.064445056 0.37735626 -0.52168489
-0.63900012 0.53654563 -1.2365866
0.66641271 0.60380888 0.13186119
-0.51863104 -0.1409892 -0.83175099
0.55362368 -0.38923091 0.081999391
-0.33781934 0.10590202 -0.41152912
-0.5558992 0.52914131 -1.316368
-0.80024743 -0.30394575 -0.90564185
-0.13769159 -0.066859633 -0.67966086
-0.83080482 0.57920873 -1.1090975
-0.67048717 0.28655636 -1.0375783
-0.75931799 0.60193604 -1.0453097
-0.58610702 0.4491289 -0.70672923
0.49057993 -0.36736059 0.14091258
0.14714178 -0.29883671 -0.58222651
-0.58785611 -0.36919895 -0.5642451
0.49943191 -0.34858805 0.14279208
-0.55791974 -0.33952099 0.14612597
-0.50934082 0.53118235 -0.97648996
0.28362441 -0.043899968 -0.39290088
-0.74835467 0.58451045 -0.96217006
0.20686425 0.49252057 -0.5691362
-0.2121487 0.56596649 -0.84778869
-0.63995838 0.53870034 -0.65465105
-0.54291642 -0.09858641 -0.75730336
0.50668824 -0.041773215 0.14981055
0.84870696 -0.044911355 0.14805102
-0.4646256 -0.42699611 -0.85924035
0.50731993 0.045202821 0.1489273
-0.67004216 -0.30829835 -1.0596499
0.34078243 0.45655721 -0.49651611
-0.42413712 -0.2715126 -1.0043899
-0.49021596 0.55781496 -0.84103918
-0.92668784 0.61126125 -0.96717578
-0.60921878 -0.32490188 -1.0097227
-0.41999984 0.29133397 -0.49841595
-0.97362113 -0.31184593 -1.2732013
-0.14390069 -0.16414943 -0.72475016
0.27152246 0.57527322 0.1455542
0.82428873 0.57822627 0.14174971
0.14279127 0.61627769 0.14725432
-0.73837662 -0.33055508 -0.94258535
0.1179775 -0.36077031 -0.5362457
-0.27519065 0.41778213 -0.83973211
0.057982929 0.56481111 -0.040774465
-0.51462543 -0.41918379 0.15057838
0.034936547 -0.31598243 -0.096482754
-0.52513576 -0.38276881 0.15399662
-0.42346516 0.61456656 -0.069473356
-0.055600882 -0.37212193 0.15710399
-0.53926814 -0.35643792 0.15276822
0.099442899 -0.3282392 -0.2251839
-0.83147287 -0.44162366 -1.3517785
0.04643923 -0.34551644 0.15594159
-0.84065044 0.52168816 -1.270077
-0.66806626 -0.40958366 -1.2828574
-0.14005911 -0.45990747 -0.44777089
-0.15146434 -0.30075985 -0.60532326
-0.76739657 -0.036998272 -0.91203392
0.46751121 -0.31400731 0.15198661
-0.72726917 0.5244903 -1.2204908
0.56319702 -0.30894467 0.15679628
0.18327433 -0.35677192 -0.49859238
-0.57167399 -0.35865593 -1.2038716
0.51729965 -0.1421576 0.1563167
-0.63920772 0.27793005 -1.0533704
-0.77739263 0.0062859952 -0.9233405
-0.31620848 -0.3831054 -0.87738502
0.52974468 -0.04065752 0.15967631
0.099936396 -0.30264604 -0.34564713
-0.70663989 -0.38660425 -1.2619777
-0.5123117 -0.36781937 -1.1222423
0.57910669 0.14045563 0.15886098
-0.54929441 -0.4640846 -0.49527746
0.55656844 0.20760456 0.15930164
-0.32147402 -0.46014917 -0.32653505
-0.35668755 0.53900349 -1.0746303
-0.35892785 0.54507911 -1.0111889
0.059211671 -0.38383758 -0.30037642
0.64033473 0.29724494 0.15536903
0.52639294 0.30172142 0.1514895
0.087205052 0.5579828 -0.30490512
-0.40153259 0.39985526 -0.85909331
-0.36064148 0.016958967 -0.83523983
0.47290444 0.37753272 0.15381484
-0.65164346 -0.060298335 -1.0227852
-0.27581704 0.55895597 -0.66289937
0.19040188 0.56974924 -0.50066614
0.26391536 0.53483117 0.15739468
-0.40529734 0.55139917 -1.0272855
0.39802107 0.53554893 0.15473936
-0.59781587 0.61893862 -1.0435011
-0.38881856 0.55028129 -1.0687516
-0.25454083 0.60776007 -0.73829353
-0.17551562 0.55488169 0.15260136
-0.70302713 -0.39019775 -0.91483688
0.27531996 0.55451107 0.15096317
-0.54229689 0.53032917 -0.99051833
-0.49266005 -0.001445055 -0.82889044
-0.53467864 0.16539498 -0.84293485
-0.5238806 0.56289077 -1.1044869
-1.0389701 0.50202841 -1.4102745
-0.33780307 -0.34499604 -0.3498472
0.83516407 0.57436031 0.15239918
-0.67620432 0.53287095 -0.82318962
-0.41494611 -0.43378669 -1.1328872
-0.0026069283 0.60478532 0.15376931
-0.59565157 0.040758241 -0.59630084
-0.29166883 -0.30878529 -0.90450108
0.019258022 -0.37443003 0.16673973
-0.60988724 -0.37454474 -0.58344316
0.33655605 -0.36803412 0.1666858
-0.84646916 0.5358693 -1.2080791
0.58843917 -0.36824247 0.16826731
-0.69976604 0.058396399 -1.0064561
-0.60821307 -0.33645645 0.1643631
-0.026240535 0.096319988 -0.45601985
0.54595989 -0.31554049 0.16602442
-0.4933117 -0.14499556 -1.0118442
0.62318468 -0.30458903 0.16378954
-0.48694819 -0.42116964 -1.1412216
0.46112368 -0.17154121 -0.15867233
-0.60155666 0.54869682 -0.77683008
-0.63206154 -0.3740451 -0.98913831
-0.98859346 0.52248096 -1.4296303
-0.444738 0.60441196 -0.36640394
0.74955928 -0.1565671 0.16966695
-0.352166 0.55897069 -0.92341274
0.28563449 -0.37468278 -0.34787291
0.50551331 -0.081366792 0.16415977
0.56353545 -0.051376209 0.16556537
-0.41428164 0.016725849 -0.44432428
-0.69142956 -0.15055598 -1.0188036
-0.36368603 -0.13125598 -0.83537364
-0.40333021 -0.33758682 -0.79227257
0.59975135 0.042586744 0.16424131
-0.44638348 -0.29489017 -0.91035229
-0.6769709 -0.39783025 -1.320154
-0.78244311 0.55162841 -1.4418234
-0.059248269 -0.32733881 -0.11544105
-0.27615541 0.35695684 -0.36105573
-0.71287739 0.45353025 -1.5426551
-0.14606595 -0.4181858 -0.34610501
-0.71022701 -0.37580013 -1.5216603
0.5308733 0.25715083 0.16655314
-0.28312385 -0.012213796 -0.78283089
-0.81223249 -0.26078475 -0.94644403
0.26487166 -0.21006066 -0.44980961
0.46589237 0.3643879 0.16925403
0.31753618 0.37718779 -0.030396402
-0.14999592 -0.3139309 -0.60051262
-0.38559026 -0.343869 -0.79493618
0.68690872 0.46924305 0.16961944
-0.54173839 0.045615017 -1.0971876
0.64070034 0.54205549 0.1632033
-0.41433632 0.58387434 -0.4987641
-0.68377531 0.56793046 -1.0668796
-0.38672295 0.5720818 -0.94547755
-0.034005821 0.61978471 0.16795182
0.36788088 0.43154109 0.072010577
-0.31332821 0.19336239 -0.89680499
0.16403925 0.62252331 -0.12990665
-0.93025243 -0.38977098 -1.0644362
-0.0020441152 0.45428717 -0.43306077
-0.53074324 -0.3095389 -0.15069956
0.089347512 -0.33875555 -0.68022883
-0.69483924 -0.39920604 -1.325541
0.37645715 -0.35634494 0.17923638
-0.21235617 0.5506112 -0.71401238
0.5221644 -0.31829834 0.17189549
-0.5135588 0.55693817 -1.1484618
-0.59144515 -0.30389795 0.17580214
-0.3684597 0.11265808 -0.84978157
-0.5775401 -0.29463732 0.17803305
0.17942792 -0.29972428 -0.22846121
-0.29027694 -0.32979369 -1.0700493
-0.61905801 0.33422509 -1.0353348
0.52810985 -0.13562778 0.17867368
0.62125731 -0.11460674 0.17311478
0.48885512 -0.038454182 0.17860925
0.50269341 -0.010576367 0.17681137
-0.45068246 0.2470794 -0.99044812
0.35386842 0.50593221 -0.24624839
-0.44117931 -0.42592746 -0.68763381
0.094018012 -0.29842317 -0.35395232
-0.60137719 -0.36567169 -1.073185
0.48252559 0.16043887 0.1755271
0.29087448 0.33630735 -0.33970219
0.50328612 0.29283226 0.17983967
0.30053151 -0.35932124 -0.29698715
0.5245378 0.31267154 0.17036867
-0.42484084 0.11797315 -0.99501872
-0.12976626 -0.2067135 -0.66816205
-0.61902142 -0.35562333 -0.65450168
-0.64650238 -0.12991399 -1.0573006
-0.59084123 0.12031376 -0.65469813
-0.72000921 -0.33538866 -1.4467673
0.30539024 -0.42011607 -0.13429025
-0.70564115 -0.3118242 -1.054096
-0.62725556 -0.30915773 -0.55449748
0.12635116 -0.33336854 -0.14433543
-0.73677516 0.50465024 -0.48926353
-0.26339203 0.56908846 0.17169744
-0.38406557 0.13502377 -1.0022037
-0.23839587 0.60309553 -0.49535769
-0.9053607 0.52500951 -1.118511
0.1973806 0.57972777 0.17086208
-0.36273813 0.50515956 -1.0911466
-0.47689846 0.53969759 -0.80059254
-0.56044674 0.38761964 -0.52473581
-0.36039326 0.168385 -0.54887903
0.10771874 0.59380639 0.17985605
0.57454777 0.59624696 0.17477372
-0.060225904 0.60332078 0.17902225
-0.20791799 -0.11808142 -0.62662256
-0.63280749 -0.39148533 -0.088367715
-0.62179255 -0.32732132 -1.1917697
0.10496551 -0.44093585 0.18834999
-0.62698317 -0.34786245 -0.60466301
-0.61047685 -0.37953174 -1.2776855
-0.71671152 0.52889836 -1.2628365
0.3991999 0.58518809 -0.10022753
-0.62229741 -0.0025108892 -0.73099506
0.46435121 -0.36021 0.18498132
0.24538231 0.58497614 -0.38932088
-0.55278432 -0.32387084 0.18595743
0.49605855 -0.30085635 0.18716025
0.52447319 -0.30259073 0.18311197
0.52138954 -0.29008144 0.18327624
-0.81904215 0.56462848 -1.0267307
0.61153102 -0.21729416 0.18941951
0.53858709 -0.20745468 0.18787754
-0.62718475 -0.31685552 -0.59001166
-0.4107793 0.39286023 -0.97797233
0.30644578 -0.34055486 -0.1795823
-0.23848233 0.24225029 -0.61988026
-0.30085045 0.56299341 -0.80639362
-0.53763157 -0.083949715 -0.53524685
-0.59192896 -0.42563266 -1.1910145
0.64172471 -0.021680206 0.18261284
0.20340869 0.10430761 -0.2444877
0.47178018 0.60434771 -0.15693848
0.47648308 0.046569973 0.18549541
-0.55663788 -0.13228291 -0.5487721
-0.61228061 0.37342361 -0.72326916
0.56085986 0.19167793 0.18121117
-0.67774212 0.56523299 -0.80565321
-0.7252214 0.25413519 -0.97992325
-0.49274242 0.30093175 -1.0399932
-0.64263403 0.53941047 -1.2045579
-0.017493963 -0.34197253 -0.24436149
-0.47146401 0.56807637 -1.201375
-0.28708768 -0.19425118 -0.65323257
0.46216431 0.35197851 0.18240488
-0.82778716 -0.402659 -1.079826
-0.59749472 0.14633642 -1.0392684
-0.81816661 0.56404686 -1.1532973
0.59506297 0.536443 0.18407458
-0.50985682 0.61204767 -1.070843
-0.69392914 0.55109161 -0.81999689
0.42930639 0.56475115 0.18243526
-0.62718475 -0.31685552 -0.59001166
-0.60641468 0.58489299 0.18849602
0.55306762 0.58535451 0.18877205
-0.25664908 0.50592923 -0.71130651
-0.61338609 0.60118514 0.18007179
0.27907535 0.32925504 -0.38417542
-0.60706174 0.62616104 0.18179271
-0.6053896 0.65290308 0.18550071
0.12871951 0.54455 -0.61893594
0.24017692 -0.21668506 -0.2708768
0.23547632 -0.29883474 0.015794396
0.6688031 -0.36376375 0.19183075
-0.18132578 0.50744528 -0.84724867
0.83746898 -0.35964137 0.19502288
-0.545017 -0.11218011 -0.85676044
-0.38203877 0.37422657 -0.87166393
-0.58229244 -0.43873143 -0.95750141
0.45975173 0.55599618 -0.18137121
0.56317317 -0.11523911 0.19258249
0.48191398 -0.027328715 0.19836557
0.14683825 -0.29542679 -0.24436152
-0.41412905 0.62362331 -0.13963538
-0.3004145 0.076645851 -0.45521283
0.10846472 -0.31997216 -0.14793533
-0.6877498 -0.29795724 -1.0105019
-0.44201648 -0.33603582 -0.43331173
0.59244072 0.049320266 0.1922082
0.65452701 0.088194847 0.19212133
0.47608972 0.11838719 0.19062516
-0.5241878 0.5292083 -1.0368999
-0.54534465 -0.08220461 -0.72239423
0.58803993 0.19415388 0.19439304
0.4942165 0.20315079 0.19503172
-0.84278488 0.061535299 -0.90620095
0.57243949 0.22196859 0.1998595
-0.64351702 0.55633771 -1.0961709
0.51767939 0.27705875 0.19904929
0.48995811 0.29440302 0.19934905
0.15261838 0.12797293 -0.3126156
0.45608833 0.33984917 0.19994539
-0.40006563 0.054808632 -0.94828987
-0.33104599 -0.44831228 -0.43561614
0.065238088 0.052153736 -0.4533816
0.43561211 0.40992737 0.19168963
-0.63919592 -0.39450642 -0.078907579
-0.61909246 0.63201517 -0.66874272
0.43571156 0.48248124 0.19717571
-0.026240356 0.19538659 -0.57406569
0.033636928 0.57307351 -0.6777426
0.0083589554 -0.33475748 -0.57845718
-0.18741211 -0.3964321 -0.55706
0.61367416 0.51356107 0.19628179
-0.34619832 -0.11453715 -0.57553732
-0.055179834 0.58323956 -0.69385511
-0.47265697 0.56034327 0.029766113
-0.11748186 0.55963457 -0.72128344
-0.32180119 0.31925777 -0.3616932
-0.50962454 0.5623818 0.19699313
-0.33492404 0.070926964 -1.0285764
-0.60357869 0.50033283 -0.99529105
0.4571867 0.56232452 0.19690183
0.25260615 0.57382381 0.19922964
0.55699861 0.5767296 0.19390661
-0.20201607 0.58021939 0.19106007
-0.084866256 0.59607965 0.19091779
0.03512603 0.5910511 0.19520739
-0.10486364 0.60750175 0.19803478
-0.79411811 0.3713569 -0.95779216
-0.45997512 0.39148837 -0.97887146
-0.22842757 0.10681795 -0.65727973
-0.75892645 -0.012125019 -0.99239886
0.37197539 -0.36655432 0.20914637
0.5775032 -0.36090443 0.20738265
0.84489894 -0.34234837 0.20941502
-0.25308836 -0.1690533 -0.76268697
-0.78244311 0.55162841 -1.4418234
-0.32140845 -0.3257162 -0.94748753
-0.18226731 -0.29749769 0.20288759
-0.48437709 -0.51121277 -1.063113
-0.06441088 0.062554516 -0.52143753
-0.45201498 -0.42727157 -1.0134737
0.61099374 -0.19604874 0.20688367
-0.40238711 0.4734388 -0.83638668
-0.48572558 0.57453477 -0.042737424
0.55049115 -0.11351886 0.20514822
-0.33089375 0.59462905 -0.90160447
-0.93758303 -0.42009133 -1.0371876
-0.61455643 0.57415408 -1.0986826
0.6139316 -0.072258763 0.20685133
0.50728798 -0.050963521 0.20340264
-0.71247655 0.56446695 -1.0658584
0.52025169 -0.046141475 0.20101088
0.39797777 -0.015070587 0.20724972
-0.6843636 -0.32514387 -1.2988443
0.47902218 -0.0090728402 0.20379388
-0.28312385 -0.012213796 -0.78283089
-0.8297314 -0.37800866 -1.1069624
0.2786769 0.4474355 -0.24436161
-0.3777805 0.54047561 -1.1007557
-0.33777764 -0.32407671 -0.61793935
0.46120116 0.01440537 0.20839334
-0.6853286 -0.39437145 -1.2314345
0.52639294 0.30172142 0.1514895
-0.47815716 -0.034388065 -0.5209313
-0.4709312 0.56059992 -0.72355354
0.097200811 0.31149584 -0.1741167
-0.60518181 0.2747035 -1.068942
0.5311628 0.26534408 0.20194119
-0.52230644 0.54390562 -0.82821882
-0.21096969 0.39127564 -0.62606287
-0.68732506 -0.37654859 -1.2960194
-0.14606595 -0.4181858 -0.34610501
-0.30809134 0.43340704 -0.49497634
0.44295034 0.34996569 0.20550507
-0.48245257 -0.26562211 -0.99846804
-0.80815041 0.61928481 -1.2490637
-0.61047685 -0.37953174 -1.2776855
-0.20560056 0.15851425 -0.61126888
-0.61521202 0.53475034 0.20480928
-0.59818661 0.075805865 -1.0381444
-0.78972292 -0.39150274 -1.1756794
-0.12839112 -0.37583721 -0.65769196
-0.63067025 0.55451298 -0.71558434
-0.34416208 -0.33733016 -0.35132086
0.20799157 0.55965608 0.20174187
-0.60559571 0.56789875 0.20203106
-0.54826897 -0.50981629 -0.55983537
0.052895874 0.58308494 0.20188956
-0.47287688 -0.3273316 -0.99725163
-0.80779576 0.31672555 -0.98151648
-0.41284412 0.21308938 -0.99242121
-0.3723644 -0.32840121 -0.81759429
0.34061795 0.54270387 -0.11314616
-0.46389729 0.54192859 0.012109071
-0.53330612 0.38985634 -0.75969553
-0.27612004 0.14441377 -0.65551376
-0.47527099 -0.40902823 -1.0585864
-0.3158353 0.57065982 -0.57353324
-0.4820731 -0.21793121 -0.73486257
-0.62556285 -0.32295519 -1.2995415
-0.23940539 -0.29366064 0.21799338
0.13229296 -0.29868454 -0.19182421
-0.36166036 -0.015367433 -0.81902969
0.28563449 -0.37468278 -0.34787291
0.54570866 -0.25765845 0.21581994
0.12635116 -0.33336854 -0.14433543
-0.48694819 -0.42116964 -1.1412216
-0.62229741 -0.0025108892 -0.73099506
-0.22526079 0.38812071 -0.55881071
-0.70323074 0.3360433 -0.91289103
-0.52391165 -0.085961461 -0.81167567
-0.62118608 0.30601937 -1.029397
0.59975135 0.042586744 0.16424131
-0.4764033 0.36768377 -0.77338094
0.45431706 0.023370557 0.21339142
0.74955928 -0.1565671 0.16966695
0.44698301 0.047599539 0.21968585
-0.29064596 0.38946974 -0.82163835
-0.70564115 -0.3118242 -1.054096
0.54595989 -0.31554049 0.16602442
0.38948911 0.56480277 -0.01380229
-0.4793328 0.57383734 -1.0232027
-0.71671152 0.52889836 -1.2628365
0.39802107 0.53554893 0.15473936
-0.28255269 0.047871113 -0.82713616
0.61448169 0.22671258 0.21365753
0.51190472 0.25281069 0.21557665
-0.27585164 -0.15167016 -0.81469864
-0.60798836 -0.0025108892 -0.77135277
-0.35883495 0.15247002 -0.93986189
0.44051561 0.34941471 0.21178174
-0.98859346 0.52248096 -1.4296303
-0.72000921 -0.33538866 -1.4467673
0.43368453 0.35122472 0.21335232
-0.38559026 -0.343869 -0.79493618
-0.035229236 0.36692476 -0.27938265
-0.923388 0.54268271 -1.3196617
-0.60821307 -0.33645645 0.1643631
-1.0389701 0.50202841 -1.4102745
-0.28135121 -0.31502587 -0.52014482
-0.82552731 0.54576427 -1.0292975
0.26391536 0.53483117 0.15739468
-0.48727193 -0.40848058 -1.0718396
-0.41409475 -0.31994244 -0.090391219
-0.44843209 -0.43226606 -0.67470193
-0.19218285 0.55389214 0.21661437
0.059211671 -0.38383758 -0.30037642
-0.59581697 -0.46451506 -1.023715
-0.39998695 -0.28829885 -0.81466049
-0.56010032 -0.36021608 -1.1181726
0.29974577 -0.0045633316 -0.32940644
-0.81000638 0.51092553 -1.4857086
0.40671334 -0.38362566 0.22938171
-0.3243919 0.53254116 -0.74330372
-0.35216051 0.52745581 -1.0633414
-0.6918335 -0.24151564 -1.0593438
0.42268747 -0.35578209 0.22466743
-0.55588293 -0.32080919 0.22260135
-0.53763157 -0.083949715 -0.53524685
-0.74703985 -0.035016626 -1.0118747
-0.35393387 0.48936403 -1.0689725
0.47138539 -0.29933918 0.22358668
-0.26449201 0.50773382 -0.82429588
-0.0026069283 0.60478532 0.15376931
-0.28587177 0.5629797 -0.91853678
0.55678034 -0.18029317 0.225308
0.20799157 0.55965608 0.20174187
0.45257404 0.55827093 -0.14494449
-0.41993353 0.10062128 -0.77051133
0.34061795 0.54270387 -0.11314616
0.46632499 -0.017164946 0.22048044
-0.47040975 0.62996715 -0.46683133
0.46528286 0.011250272 0.22819136
-0.60363472 0.25045419 -1.0383201
-0.4471975 -0.33510345 -1.1274946
-0.54173839 0.045615017 -1.0971876
0.4369204 0.080158472 0.22789568
-0.67620432 0.53287095 -0.82318962
-0.6948694 -0.16755038 -1.0829017
-0.32685 -0.23476653 -0.71513116
-0.41284412 0.21308938 -0.99242121
-0.42413712 -0.2715126 -1.0043899
-0.43804699 0.58775979 -0.46589726
-0.51058787 -0.3468951 -0.72956836
0.40828878 0.36848074 0.22832781
-0.44638348 0.28986841 -0.91035229
0.50263327 0.38802826 0.22520091
0.39442942 0.40232757 0.22528994
0.40179771 0.4179979 0.22271293
0.040679395 0.55935299 -0.17442659
-1.0241472 -0.25547457 -1.2045585
-0.80779576 0.31672555 -0.98151648
-0.60621095 0.54499596 0.22746277
-0.23603451 0.54510033 0.22607334
-0.57543159 0.55180949 -1.1068466
-0.53946674 -0.10008164 -1.0340874
-0.41394067 -0.3230733 -0.95599556
-0.32479841 0.5569225 0.22850175
0.017902993 0.57076907 -0.58861983
0.3484261 0.55013788 0.22121322
-0.54364359 0.12855279 -1.0667832
-0.31332821 0.19336239 -0.89680499
-0.6978451 0.54152369 -0.74571764
-0.62229693 -0.036431927 -1.0218279
-0.66619325 -0.32153606 -0.38628328
-0.31043306 0.56230551 -0.79944181
-0.5202477 -0.34926414 -0.79581165
-0.082449555 -0.44179043 0.23082805
0.48459548 -0.38644212 0.23462197
-0.24541023 0.53782487 -0.73438621
-0.60706174 0.62616104 0.18179271
-0.36274439 0.53958672 -1.0763301
0.50828898 -0.33349186 0.238415
-0.40153259 0.39985526 -0.85909331
-0.34938961 -0.51069373 -0.85351402
-0.63826603 -0.31538284 0.23766232
0.67450732 -0.29500335 0.23560792
-0.90541077 -0.39697874 -1.5124617
-0.73134553 0.49397826 -0.6078375
0.47411984 -0.28363156 0.23398525
-0.233832 -0.38496196 -0.52065516
-0.79615808 -0.39742905 -1.1859279
-0.34619832 -0.11453715 -0.57553732
-0.73159462 0.050785661 -1.0863769
0.015232399 -0.073205911 -0.54541069
-0.26298696 -0.45444635 -0.54656971
-0.47995439 0.59065932 -0.1415199
-0.26211667 0.26430315 -0.73295903
0.45288369 -0.030186743 0.2382586
0.43385407 0.038674176 0.23272115
0.27515748 0.041245937 0.23510419
-0.17257255 0.033256825 -0.63917542
-0.63157797 -0.28605747 -0.90883195
0.8982982 0.076190233 0.23925924
-0.68150079 -0.30018431 -1.0324819
0.42468709 0.12516519 0.23693103
-0.63067025 0.55451298 -0.71558434
-0.42421693 -0.2037611 -0.54539788
-0.236121 0.54522038 -0.71483761
-0.85590798 0.54817528 -1.4626331
