# .PCD v0.7 - Point Cloud Data file format
VERSION 0.7
FIELDS x y z
SIZE 4 4 4
TYPE F F F
COUNT 1 1 1
WIDTH 1272
HEIGHT 1
VIEWPOINT 0 0 0 1 0 0 0
POINTS 1272
DATA ascii
0.059325777 0.073263437 -0.083816603
0.065469421 0.074801661 -0.084961638
0.070373259 0.075136043 -0.086064279
-0.071015239 0.087614805 -0.08333081
-0.064363688 0.084973037 -0.085118145
-0.059823681 0.086826056 -0.084580526
0.059460502 0.083098017 -0.08648213
0.06529133 0.084709764 -0.085105501
0.070452437 0.084311232 -0.085252166
-0.070810996 0.093838058 -0.083433211
-0.064440265 0.095035493 -0.084929183
-0.059810042 0.09341979 -0.083508611
0.059164684 0.092654876 -0.086985826
0.065541461 0.095116757 -0.085118845
0.070360146 0.095272169 -0.086062811
-0.071085989 0.10477153 -0.082730286
-0.06470833 0.10501584 -0.085028291
-0.059828598 0.10161772 -0.083884135
0.059259564 0.10360739 -0.086991966
0.065530933 0.10516776 -0.084936395
0.070580952 0.10539071 -0.086322941
-0.070966333 0.11420245 -0.085274532
-0.064370751 0.11504903 -0.085307479
-0.054240491 0.1104055 -0.091049172
-0.045281004 0.11401467 -0.087591834
-0.03553918 0.11099459 -0.090282023
-0.025891503 0.11343179 -0.088362582
-0.014476832 0.11397031 -0.09047544
-0.0033677095 0.11669321 -0.091204926
0.0055685979 0.11675861 -0.088036567
0.014895164 0.11675901 -0.090617739
0.02503968 0.11677802 -0.08845719
0.034015562 0.11676652 -0.09045624
0.044557799 0.11676405 -0.087673262
0.052595146 0.11662693 -0.091351174
0.06219124 0.11509883 -0.089612305
0.070434161 0.1147235 -0.086031683
-0.070349924 -0.11280837 -0.073820397
-0.063854471 -0.11315437 -0.07465627
-0.0549496 -0.11359622 -0.074978732
-0.045196392 -0.11369342 -0.074781112
-0.034519948 -0.11368418 -0.074974917
-0.025221368 -0.11356211 -0.07508558
-0.015391088 -0.11376809 -0.075030975
-0.0048703682 -0.11374827 -0.075058073
0.0051870923 -0.11374178 -0.075090446
0.015391576 -0.11376828 -0.075030543
0.025220439 -0.11356244 -0.075084403
0.034520347 -0.11368449 -0.074974775
0.045196488 -0.11369377 -0.07478141
0.05464172 -0.11364502 -0.074972443
0.064569443 -0.11308639 -0.075115442
0.070326306 -0.11202836 -0.077527717
-0.0705861 -0.10586993 -0.075499997
-0.064683057 -0.10542417 -0.074631751
-0.059122987 -0.10457534 -0.079769313
0.059045948 -0.10391799 -0.074728385
0.065590225 -0.10515279 -0.075035982
0.070379972 -0.1039797 -0.076342806
-0.070742235 -0.094835468 -0.076090872
-0.064465791 -0.095026918 -0.074840911
-0.059757769 -0.091226578 -0.076438114
0.059353143 -0.092804857 -0.07284832
0.065397099 -0.095126107 -0.075230956
0.070493162 -0.095916033 -0.074727327
-0.070713036 -0.085700497 -0.076502413
-0.064772904 -0.084879898 -0.074987747
0.059025247 -0.08659555 -0.074137196
0.065712228 -0.085176602 -0.074907847
0.070337854 -0.084757976 -0.076439992
-0.070693314 -0.075396284 -0.075846687
-0.06446398 -0.074794203 -0.074953623
-0.059848994 -0.072441459 -0.075727947
0.059064191 -0.074064396 -0.073854342
0.065268368 -0.074896462 -0.075373888
0.070343584 -0.07455343 -0.076645471
-0.070655629 -0.064203478 -0.074856304
-0.064526357 -0.064951144 -0.075081982
-0.058370121 -0.067930996 -0.07125435
0.059438802 -0.065059192 -0.074504375
0.065150127 -0.064708434 -0.075254463
0.070419647 -0.064279467 -0.075607225
-0.070470482 -0.053982422 -0.075144149
-0.064697221 -0.054869533 -0.075354226
-0.059409894 -0.053442642 -0.072725236
0.058633339 -0.054498967 -0.073114052
0.065579608 -0.05500805 -0.07545682
0.070335813 -0.054467469 -0.075550877
-0.07070706 -0.044639207 -0.075470001
-0.064394318 -0.044533454 -0.075550444
0.059151649 -0.045112934 -0.073760726
0.065445341 -0.04478281 -0.075308323
0.070360504 -0.044290449 -0.075629383
-0.070617586 -0.033562824 -0.073929384
-0.064477623 -0.035169039 -0.075338639
-0.058971807 -0.037781209 -0.073898435
0.059420019 -0.034483679 -0.076846451
0.065534174 -0.035035074 -0.075469971
0.070279591 -0.035288565 -0.076012462
-0.070468538 -0.024252493 -0.073274694
-0.06511087 -0.025156688 -0.075397931
-0.058879063 -0.022438362 -0.075309053
0.059395984 -0.024885984 -0.075748771
0.065386958 -0.025138749 -0.074939452
0.070374236 -0.025419436 -0.075785309
-0.070459098 -0.014909598 -0.073688336
-0.064408563 -0.014941889 -0.075372085
0.059285291 -0.014431244 -0.078479394
0.065718852 -0.015292988 -0.075374506
0.070412792 -0.015203847 -0.076535873
-0.070487499 -0.0041243536 -0.073877811
-0.064553604 -0.0049318545 -0.075029574
0.059433986 -0.004434553 -0.078012541
0.06541805 -0.005498976 -0.075007588
0.070377417 -0.0053854389 -0.077178478
-0.071024559 0.0056247637 -0.073646978
-0.064873211 0.0051044486 -0.075150259
0.059065212 0.0034594969 -0.077604808
0.065367945 0.0048284433 -0.075031921
0.070422731 0.0045342655 -0.077139437
-0.070882812 0.01549249 -0.073722534
-0.064630419 0.015147307 -0.074856199
0.059171349 0.015205884 -0.076479234
0.065666556 0.014959026 -0.07521259
0.070543475 0.015349994 -0.076725714
-0.070810296 0.02335445 -0.074001946
-0.064595491 0.025043877 -0.074997485
-0.059181083 0.020864993 -0.072701618
0.059205499 0.02372062 -0.077018462
0.065443374 0.024789065 -0.075242288
0.070478261 0.025063299 -0.075765207
-0.07096979 0.033896398 -0.075347714
-0.064673074 0.035367917 -0.075261258
-0.05944334 0.034511387 -0.07067588
0.059095681 0.034074768 -0.075501993
0.065530412 0.035230093 -0.075226247
0.070494831 0.035674937 -0.076062419
-0.07076329 0.045242306 -0.076338768
-0.064454623 0.045001224 -0.074828632
-0.059612095 0.046432838 -0.073905289
0.059084613 0.044851042 -0.074431978
0.065380707 0.045257788 -0.075207353
0.070664056 0.046578102 -0.075360291
-0.071083337 0.056553554 -0.075945526
-0.064664066 0.054990575 -0.07500501
-0.059269257 0.059074521 -0.07691814
0.059091069 0.055100124 -0.074062899
0.065543979 0.055116668 -0.075022049
0.070463002 0.05647267 -0.076027453
-0.070928566 0.066508725 -0.075863622
-0.064474404 0.065339431 -0.075130224
-0.059610825 0.060285315 -0.072399542
0.059342317 0.064978369 -0.075014323
0.065083444 0.065349065 -0.07513772
0.070628367 0.065634474 -0.075334489
-0.071196251 0.076181151 -0.075362995
-0.064454146 0.075583436 -0.075321898
-0.059668362 0.072719097 -0.072037846
0.059186786 0.074008971 -0.076834425
0.065397426 0.074764065 -0.075066261
0.070689514 0.075362749 -0.075247571
-0.070863418 0.085619234 -0.074948803
-0.064638637 0.085213341 -0.075114697
-0.059739783 0.084800005 -0.072468907
0.059272241 0.084586792 -0.076158367
0.065088376 0.085066967 -0.075121284
0.070494644 0.085060462 -0.075461961
-0.070719287 0.094991073 -0.073649585
-0.064393938 0.095070057 -0.074845418
-0.059669785 0.096465126 -0.073972605
0.059358899 0.094836369 -0.073457792
0.065033183 0.095395289 -0.075027764
0.070608415 0.095037177 -0.07468836
-0.0710271 0.10453927 -0.075537913
-0.064413384 0.10489989 -0.075124934
-0.059793167 0.10692051 -0.07232821
0.059405565 0.10614748 -0.073347278
0.065135792 0.10538504 -0.075154833
0.070568025 0.10482042 -0.076184452
-0.070789911 0.11379998 -0.075193606
-0.064160205 0.11385411 -0.077271745
-0.053985883 0.11441153 -0.07857208
-0.043404836 0.11571857 -0.076882318
-0.033445712 0.11557274 -0.076595768
-0.026039675 0.11457393 -0.078494363
-0.014275554 0.1156953 -0.076783128
-0.0029141016 0.11466787 -0.078560956
0.0040703095 0.11572894 -0.076841056
0.014217517 0.1158331 -0.076777674
0.025926221 0.11483924 -0.07849139
0.035295065 0.1158404 -0.076605819
0.043346766 0.11608389 -0.076869711
0.053908668 0.11598796 -0.076713152
0.064505987 0.11509057 -0.075002395
0.07059326 0.11255386 -0.075144701
-0.07066486 -0.11262883 -0.064381629
-0.06394583 -0.11319683 -0.06553442
-0.054741628 -0.11375645 -0.065218426
-0.045188081 -0.1136462 -0.065112352
-0.034720056 -0.11370748 -0.06455455
-0.024697062 -0.11366312 -0.064881139
-0.015214682 -0.11371546 -0.065272778
-0.0047932034 -0.113833 -0.065299138
0.0049454174 -0.11379476 -0.065337434
0.015214586 -0.11371543 -0.065273516
0.02469689 -0.11366279 -0.064882286
0.03472035 -0.11370763 -0.064555258
0.045188278 -0.11364623 -0.065112427
0.054810729 -0.11374538 -0.065279722
0.063950896 -0.11329584 -0.065103091
0.070127189 -0.11182588 -0.064672284
-0.070613787 -0.10380748 -0.065214694
-0.064544849 -0.10535415 -0.064990565
-0.059282951 -0.10333529 -0.066726543
0.059100613 -0.10388367 -0.064845309
0.065554641 -0.10540526 -0.065427072
0.070298649 -0.10590725 -0.063682452
-0.070403039 -0.094852053 -0.065567076
-0.064436384 -0.09516523 -0.065170191
-0.059549987 -0.09728542 -0.066561073
0.059060149 -0.094683468 -0.064236961
0.065041959 -0.094942555 -0.064908557
0.070178755 -0.095481053 -0.064945653
-0.070576072 -0.085409664 -0.066703841
-0.064708121 -0.084797427 -0.06486775
-0.059206679 -0.084216416 -0.065960646
0.059506502 -0.085035846 -0.066067956
0.065674454 -0.084663138 -0.065073699
0.070292465 -0.085372917 -0.064772025
-0.07052809 -0.075154662 -0.066404618
-0.064883694 -0.074637644 -0.065030798
-0.059726488 -0.075780377 -0.062599912
0.05938758 -0.075625807 -0.066527337
0.065427169 -0.074807651 -0.064688198
0.070215084 -0.074753799 -0.06486287
-0.070655689 -0.064391881 -0.063264854
-0.064152695 -0.064669654 -0.064835235
-0.059394993 -0.066147558 -0.065773726
0.059310805 -0.067061886 -0.06677305
0.065605581 -0.064997673 -0.065254815
0.070299707 -0.064800017 -0.064989313
-0.070688963 -0.053297382 -0.06363903
-0.064929396 -0.05523935 -0.064977795
-0.059562072 -0.054291338 -0.064392179
0.059421718 -0.055708241 -0.066728912
0.065468617 -0.055080667 -0.064915866
0.070162967 -0.056072187 -0.064902782
-0.070644349 -0.045030598 -0.063956283
-0.064566642 -0.044771649 -0.064860091
-0.059845082 -0.045472693 -0.065274939
0.059303999 -0.047099717 -0.065290585
0.065537453 -0.044804666 -0.065189838
0.070435248 -0.045622732 -0.063439086
-0.070905596 -0.03666338 -0.064056143
-0.064774826 -0.034863565 -0.064775407
-0.059547149 -0.037009928 -0.066031992
0.059139322 -0.035058111 -0.065215245
0.065145284 -0.034992799 -0.065181114
0.070258841 -0.034908459 -0.063844182
-0.070878647 -0.025428576 -0.063411273
-0.06461437 -0.024725895 -0.064808674
-0.059654627 -0.025506202 -0.065399289
0.059134245 -0.022993475 -0.063764922
0.065193459 -0.024933966 -0.065038078
0.070429578 -0.024449237 -0.064167045
-0.070942193 -0.013472667 -0.066074111
-0.064355426 -0.014899504 -0.065210402
-0.059874635 -0.015063731 -0.066664919
0.059285082 -0.015829541 -0.062058579
0.065519348 -0.01472889 -0.064962976
0.070205063 -0.015658127 -0.063818365
-0.070709027 -0.0049908385 -0.065037921
-0.064701445 -0.0053579099 -0.064984694
-0.059768569 -0.0051795407 -0.06548094
0.059221305 -0.0070812972 -0.063482814
0.065442376 -0.0050189705 -0.064752772
0.070391573 -0.0052483794 -0.063978039
-0.070495546 0.0040713549 -0.063640609
-0.064517245 0.0046252017 -0.064991273
-0.059724331 0.0059702247 -0.064279564
0.059574202 0.0051390901 -0.061175764
0.065116413 0.0046810391 -0.064965203
0.070331663 0.0049592578 -0.063883774
-0.070668243 0.013805613 -0.064464629
-0.06436123 0.014999731 -0.065230407
-0.059760813 0.015621111 -0.062269419
0.059600472 0.017134324 -0.060376406
0.065420344 0.014925594 -0.065171614
0.070509657 0.01478472 -0.064349569
-0.070963368 0.025693096 -0.065085053
-0.064585246 0.024490522 -0.065218933
-0.059651963 0.023927677 -0.063132316
0.059193559 0.022836596 -0.060663819
0.064968228 0.024784343 -0.06475883
0.070521578 0.024082487 -0.062911719
-0.070752218 0.037059851 -0.065416932
-0.06470418 0.035011161 -0.065266199
-0.059553057 0.034182243 -0.063518234
0.059099868 0.038911015 -0.066697478
0.064699151 0.034985024 -0.064705454
0.070284411 0.035561588 -0.062904172
-0.07104069 0.047041312 -0.064489722
-0.06458687 0.044806801 -0.064757742
-0.059708975 0.045950446 -0.064876229
0.058954407 0.046168745 -0.068622082
0.065143012 0.044739395 -0.064613603
0.070207596 0.04566374 -0.06413985
-0.070971236 0.055257615 -0.064325795
-0.064926304 0.054795243 -0.065163441
-0.059800368 0.055251684 -0.065526508
0.059525788 0.052776873 -0.069359809
0.064586066 0.054557875 -0.064560138
0.070167534 0.055937532 -0.065158211
-0.071330748 0.06529136 -0.063090399
-0.064363264 0.064964153 -0.064615138
-0.059596121 0.066255942 -0.065834843
0.059147283 0.063629121 -0.068020299
0.064880118 0.064698935 -0.064876527
0.070472524 0.065024257 -0.065068707
-0.070938386 0.075916499 -0.064328693
-0.064948097 0.075079277 -0.06493064
-0.059789173 0.075729243 -0.064847954
0.059313502 0.075506985 -0.06609419
0.064913653 0.075340755 -0.06497103
0.070229165 0.075000376 -0.063807502
-0.071108148 0.08485125 -0.064014487
-0.06456919 0.08503177 -0.065020487
-0.059778713 0.08582706 -0.0651825
0.059242144 0.08595755 -0.063133806
0.065080568 0.085212089 -0.06495443
0.070297077 0.084698424 -0.064472899
-0.071518883 0.095460087 -0.064981267
-0.064835191 0.095017798 -0.065119043
-0.059797183 0.094845474 -0.064836271
0.059298299 0.095139325 -0.063934758
0.064908452 0.094995193 -0.0648413
0.070288017 0.094976373 -0.065080963
-0.071016312 0.10223364 -0.063091919
-0.064330131 0.10498384 -0.06525372
-0.059674501 0.10555888 -0.062283866
0.059142519 0.1059332 -0.062864296
0.065055646 0.10482838 -0.064983785
0.07035087 0.10431744 -0.064308219
-0.071218543 0.11235437 -0.063221805
-0.062778465 0.11430229 -0.067165986
-0.050664295 0.11494225 -0.076131828
-0.044095263 0.11613499 -0.069620505
-0.033318236 0.11561109 -0.075368039
-0.022227665 0.11540293 -0.072608009
-0.013065197 0.1158345 -0.073763482
-0.0065432275 0.11548518 -0.075075023
0.0052774302 0.11618961 -0.070181318
0.01409666 0.11595073 -0.073745765
0.023453753 0.11575925 -0.072634697
0.030658701 0.11592459 -0.075177081
0.043999098 0.11625928 -0.069760308
0.055397391 0.11530752 -0.075895764
0.064148486 0.11500238 -0.067832872
0.07035616 0.1125939 -0.064589255
-0.070422895 -0.11253517 -0.055314831
-0.064622074 -0.11300788 -0.055014417
-0.055237766 -0.11370322 -0.055073008
-0.044971481 -0.11372726 -0.055275943
-0.034744035 -0.11367829 -0.055040456
-0.025031708 -0.11371427 -0.054915372
-0.015357519 -0.11371269 -0.05502915
-0.0044847112 -0.11372881 -0.055343613
0.0047093616 -0.1136713 -0.055415928
0.015413801 -0.11371503 -0.055009421
0.02510014 -0.11371168 -0.054934252
0.034743682 -0.11367816 -0.055040345
0.044971876 -0.11372782 -0.055276517
0.055329289 -0.11361374 -0.055017967
0.065221965 -0.1130723 -0.055106487
0.070413254 -0.11273317 -0.053183153
-0.070698567 -0.10497697 -0.053924717
-0.065497361 -0.10497016 -0.054843079
-0.059306614 -0.10588281 -0.054504536
0.059510659 -0.1021985 -0.056379981
0.06535691 -0.10543986 -0.055053324
0.070273042 -0.10487264 -0.053677797
-0.070571698 -0.095083565 -0.055831034
-0.065371625 -0.09517324 -0.055006746
-0.059453398 -0.095141485 -0.056578368
0.059216172 -0.096206777 -0.05295755
0.065368064 -0.095148616 -0.055235319
0.070394628 -0.094795406 -0.053224489
-0.07070718 -0.084527023 -0.055820875
-0.065503702 -0.08521948 -0.054803845
-0.059517365 -0.084328972 -0.053290326
0.058838006 -0.083458133 -0.057098508
0.065644674 -0.084997915 -0.05543109
0.070338905 -0.083898455 -0.052742779
-0.070779406 -0.075670287 -0.055374715
-0.065077066 -0.075039022 -0.054807156
-0.059296347 -0.074571282 -0.053804711
0.058748938 -0.074864164 -0.055037066
0.06538865 -0.074490003 -0.055207003
0.07047087 -0.073769107 -0.053176299
-0.070585765 -0.06593921 -0.054421473
-0.064898878 -0.064807013 -0.055041067
-0.05934608 -0.065536126 -0.052914485
0.058768775 -0.064743511 -0.055386275
0.065503672 -0.064432308 -0.055413168
0.070353374 -0.065024853 -0.051798411
-0.070637323 -0.055625863 -0.053890079
-0.065334812 -0.054859616 -0.055125654
-0.059189249 -0.056343187 -0.054922353
0.058837719 -0.054129109 -0.052060232
0.065202855 -0.055097152 -0.055345476
0.070475444 -0.055467259 -0.051622603
-0.070772268 -0.043995045 -0.05347918
-0.06509801 -0.044589389 -0.054449875
-0.059441365 -0.045484155 -0.054700278
0.058960542 -0.044652324 -0.05287635
0.065666519 -0.044754047 -0.055603806
0.070330955 -0.044689093 -0.05247004
-0.070730254 -0.034592368 -0.053643033
-0.065087862 -0.035175771 -0.055330887
-0.059708551 -0.035973161 -0.055179298
0.064734153 -0.034885649 -0.055494141
0.070435375 -0.034622245 -0.05199866
-0.070791818 -0.024896905 -0.054169234
-0.065025352 -0.024954293 -0.05509777
-0.059453424 -0.026309475 -0.055205859
0.059001416 -0.025731426 -0.05102291
0.06514255 -0.024823185 -0.055445276
0.070381686 -0.025453953 -0.050767623
-0.070930161 -0.015150973 -0.054824725
-0.06508445 -0.015138222 -0.055503543
-0.059246786 -0.012848116 -0.057038452
0.05998221 -0.010128796 -0.051040918
0.065127023 -0.014892805 -0.054911997
0.070272684 -0.016668318 -0.053245641
-0.070932187 -0.005088775 -0.055623889
-0.065375052 -0.00546283 -0.055711351
-0.059594851 -0.0019993335 -0.057491213
0.0650139 -0.0048256991 -0.05557096
0.070135608 -0.0068923971 -0.051576212
-0.070908315 0.0050762845 -0.056728698
-0.065107413 0.0048613446 -0.055122126
-0.059558116 0.0043257028 -0.056032449
0.059053145 0.0043301783 -0.057268411
0.065118097 0.0051683905 -0.055304378
0.070475481 0.0044080913 -0.051705137
-0.070996046 0.01582106 -0.056847043
-0.065076739 0.015098426 -0.055241283
-0.059618376 0.015813068 -0.056533515
0.058953535 0.013591081 -0.056639563
0.064990133 0.014541944 -0.055546165
0.070120923 0.014978091 -0.051514238
-0.070954576 0.026326111 -0.057442855
-0.065211512 0.024933094 -0.055340566
-0.059739463 0.026685646 -0.057760697
0.059340894 0.024894005 -0.058169872
0.065161996 0.024598798 -0.055503767
0.070286989 0.025244975 -0.053147823
-0.070828475 0.034665413 -0.056700867
-0.06510292 0.035000816 -0.055022873
-0.059527721 0.036714748 -0.054359674
0.059251796 0.035074864 -0.056502972
0.065182127 0.03496258 -0.054718599
0.070369348 0.035684187 -0.052855104
-0.070718326 0.044557288 -0.056880008
-0.064920112 0.044864014 -0.054904472
-0.059625708 0.042816356 -0.05761987
0.059625618 0.044205509 -0.057368569
0.065729886 0.044896584 -0.054817583
0.070442364 0.044020448 -0.053458523
-0.070653528 0.055878062 -0.054716267
-0.065000147 0.054990474 -0.055172842
-0.059532642 0.053002827 -0.056305498
0.059466213 0.054087516 -0.054783653
0.065236717 0.054711852 -0.055127889
0.07055752 0.054855544 -0.053474654
-0.07061851 0.065176748 -0.056211315
-0.064529933 0.065168247 -0.054994643
-0.059610158 0.065699704 -0.056595333
0.059432879 0.063245311 -0.052974433
0.065351397 0.065052949 -0.05525098
0.070521973 0.065889694 -0.053577572
-0.070912056 0.075696461 -0.053951975
-0.065057434 0.074971668 -0.054726023
-0.059520341 0.078524917 -0.052154288
0.059601087 0.074222498 -0.053704049
0.065158971 0.075159051 -0.055168238
0.070485622 0.075009234 -0.052866597
-0.070908576 0.085635245 -0.05473664
-0.065002359 0.084923565 -0.054867674
-0.059664361 0.084223285 -0.056052059
0.059436325 0.083570115 -0.055351377
0.064935051 0.085366063 -0.054961823
0.070561297 0.085316204 -0.053514514
-0.070854798 0.094131909 -0.054779701
-0.064724587 0.095131218 -0.055144291
-0.059629522 0.097447157 -0.051285148
0.059426174 0.092415839 -0.056010187
0.065172039 0.095325388 -0.055130243
0.070353962 0.095272869 -0.053190067
-0.071090542 0.10554343 -0.053571094
-0.064660594 0.10492045 -0.054894414
-0.059599042 0.10684514 -0.050241351
0.059501115 0.10316218 -0.056671664
0.065321833 0.10520557 -0.054817919
0.070598453 0.10455532 -0.053436775
-0.070624702 0.11489774 -0.052684408
-0.064619109 0.11508422 -0.054738946
-0.053364225 0.11625233 -0.061359029
-0.044034366 0.11647042 -0.057849456
-0.034312729 0.11637164 -0.060912717
-0.025198512 0.11651345 -0.058198497
-0.015560439 0.11615381 -0.061814226
-0.0054896539 0.11642619 -0.058489636
0.0030187925 0.11608636 -0.062495392
0.01606613 0.11590739 -0.061810054
0.025462793 0.11639427 -0.058199443
0.034770973 0.11614658 -0.060911391
0.044284303 0.11634973 -0.057852805
0.053839795 0.11603748 -0.061326277
0.063945122 0.11487715 -0.057627939
0.070303924 0.11347277 -0.052820981
-0.070703834 -0.111518 -0.044574007
-0.064268515 -0.11300441 -0.044805963
-0.05506235 -0.11354309 -0.04494625
-0.045311347 -0.11372785 -0.045343306
-0.035056289 -0.11359781 -0.045050882
-0.025040822 -0.11374342 -0.044690669
-0.0154675 -0.11369187 -0.044915061
-0.0049098693 -0.11360721 -0.044882797
0.0050967024 -0.11358681 -0.044932839
0.015467681 -0.11369194 -0.044916686
0.025040597 -0.11374313 -0.044691361
0.035055906 -0.11359774 -0.045051649
0.045311496 -0.11372775 -0.045342926
0.055004619 -0.11358605 -0.045049641
0.064481631 -0.11287557 -0.044543814
0.070578068 -0.11202352 -0.044628277
-0.070418388 -0.10625146 -0.046088897
-0.064613871 -0.1052721 -0.045332614
-0.059404187 -0.10708246 -0.044930249
0.058723282 -0.1055226 -0.043660518
0.06570103 -0.10483705 -0.045112304
0.070573784 -0.10371535 -0.044010937
-0.07044065 -0.095628798 -0.04544105
-0.064318962 -0.09530697 -0.045172375
-0.059388198 -0.094660193 -0.045450374
0.059248753 -0.093722984 -0.047314029
0.065320827 -0.095208459 -0.045135573
0.070581764 -0.097329557 -0.041992597
-0.070522159 -0.08517243 -0.045318726
-0.06471847 -0.084865339 -0.045411274
-0.05993019 -0.085477352 -0.043242067
0.058734126 -0.084375866 -0.045640256
0.065518633 -0.085177153 -0.044619277
0.070574485 -0.08628311 -0.043442778
-0.070504047 -0.075323179 -0.045669269
-0.064672552 -0.07512816 -0.045368731
-0.059877262 -0.07321877 -0.042446278
0.059177093 -0.073840544 -0.045612391
0.065458499 -0.074736685 -0.045235477
0.07064192 -0.077138081 -0.045284823
-0.070838749 -0.066017285 -0.044277221
-0.064756699 -0.065245658 -0.045561355
-0.059913561 -0.064733528 -0.046800397
0.059311509 -0.066948757 -0.046845853
0.06574183 -0.064709954 -0.044935949
0.070540845 -0.063398384 -0.045700178
-0.070627734 -0.055169277 -0.044021171
-0.064811833 -0.055533793 -0.045474794
-0.059957713 -0.054524682 -0.043077566
0.059421618 -0.054664969 -0.046054844
0.065421067 -0.054970503 -0.045207452
0.070257232 -0.05599549 -0.044898435
-0.070707992 -0.045811672 -0.045009769
-0.065065719 -0.044987455 -0.045189634
-0.059348218 -0.04630705 -0.043816563
0.059313543 -0.043441527 -0.046717219
0.065774068 -0.044687882 -0.045399774
0.07052473 -0.045093715 -0.045731585
-0.070726894 -0.034410071 -0.044774991
-0.065252341 -0.034864839 -0.045349989
-0.059780102 -0.0354729 -0.041023232
0.05929023 -0.034674253 -0.046504214
0.06557633 -0.034934547 -0.045123346
0.070406288 -0.033887543 -0.045305897
-0.070558019 -0.025507495 -0.044422626
-0.064765722 -0.025143437 -0.045096111
-0.059740901 -0.020597577 -0.0415892
0.059231486 -0.024770727 -0.04557243
0.065362267 -0.024883503 -0.045095615
0.070392713 -0.024130477 -0.04517664
-0.070310444 -0.015183657 -0.04398559
-0.065276928 -0.015359176 -0.045440819
-0.059552245 -0.016540369 -0.044052891
0.059291899 -0.015007137 -0.044785067
0.065768361 -0.01517488 -0.044809882
0.070487514 -0.014656994 -0.047790833
-0.070341513 -0.0060055107 -0.044602588
-0.064700842 -0.0055106049 -0.045272853
-0.059570186 -0.0039887531 -0.043247681
0.059264809 -0.0046190023 -0.044968184
0.065400623 -0.0054911789 -0.044750605
0.07050994 -0.0041018771 -0.047073297
-0.070374072 0.0032960624 -0.0452272
-0.064733982 0.0045930524 -0.045204867
-0.059389375 0.0065260828 -0.043037295
0.059217077 0.0040365919 -0.043146297
0.065030605 0.0047019045 -0.04503458
0.070418611 0.0052376119 -0.046538185
-0.070530221 0.013339212 -0.043970734
-0.064956613 0.014774743 -0.045049731
-0.059473544 0.014193922 -0.04310447
0.059302468 0.014408931 -0.042200629
0.065454446 0.014750721 -0.045071933
0.070506088 0.014356455 -0.047199167
-0.07096377 0.024717949 -0.043459907
-0.064294487 0.024743356 -0.045168746
-0.059450239 0.024733504 -0.04462589
0.0594141 0.024474923 -0.042741012
0.0651884 0.024458496 -0.045137249
0.070491955 0.0251763 -0.045988668
-0.070807867 0.036150705 -0.044357147
-0.064422511 0.03500209 -0.045239352
-0.059665315 0.035384506 -0.044181451
0.059289299 0.032944698 -0.043108743
0.065000936 0.034888752 -0.045062914
0.070587404 0.035357248 -0.046401586
-0.070832908 0.046027571 -0.045257382
-0.06460721 0.044644121 -0.045035124
-0.059087615 0.04108566 -0.048103422
0.059298329 0.042959608 -0.043230668
0.065407716 0.044457749 -0.045070268
0.070745811 0.045589425 -0.0452957
-0.070986114 0.055095535 -0.044560872
-0.064076111 0.054587882 -0.045158248
-0.05944334 0.050274611 -0.045170456
0.059508044 0.054186758 -0.043640256
0.064638361 0.054391578 -0.045171864
0.070872046 0.054923333 -0.044587769
-0.070678711 0.064785831 -0.044339865
-0.064389579 0.064655557 -0.045109287
-0.059520587 0.063141346 -0.045978636
0.059583142 0.066701218 -0.0421758
0.065088034 0.064784601 -0.045322686
0.070515379 0.064584211 -0.045770541
-0.070985898 0.074939422 -0.04643169
-0.064515464 0.074799001 -0.045234032
-0.059595853 0.075668097 -0.046765476
0.05942997 0.073853485 -0.044098094
0.064970858 0.074697047 -0.045702588
0.070684105 0.075447649 -0.044197168
-0.070638418 0.086402163 -0.045424186
-0.064372681 0.084887452 -0.044957452
-0.059668377 0.087865591 -0.047530174
0.059432097 0.085067928 -0.046848245
0.065122269 0.08456105 -0.045330189
0.070681632 0.085901506 -0.045246013
-0.070860438 0.097164825 -0.046085622
-0.064330839 0.095430695 -0.045105223
-0.059739769 0.099751562 -0.048276812
0.059495505 0.095918648 -0.046745561
0.06507998 0.094943538 -0.04505787
0.070832483 0.0953639 -0.044032566
-0.07047268 0.10559037 -0.044364348
-0.064684987 0.10532374 -0.045051556
-0.059529223 0.10473899 -0.041291118
0.059493009 0.10623134 -0.044636991
0.064969987 0.10478166 -0.044916399
0.070917591 0.10485367 -0.044676665
-0.071075626 0.11363919 -0.044551779
-0.06250561 0.11473869 -0.047517948
-0.055378955 0.11609694 -0.049889281
-0.043567564 0.11661818 -0.047196008
-0.033238839 0.11651129 -0.047350157
-0.023790201 0.1164031 -0.049975488
-0.015161446 0.11676159 -0.046944015
-0.0038960862 0.11675044 -0.0478121
0.0068643522 0.11658344 -0.050498638
0.013446926 0.11690535 -0.046903208
0.022127423 0.11685119 -0.04981285
0.033523977 0.11678607 -0.047378644
0.043877434 0.11686846 -0.047237866
0.052902929 0.11667913 -0.049930938
0.064655162 0.11502913 -0.045070466
0.0707286 0.11251659 -0.044065051
-0.070696853 -0.11043105 -0.038517743
-0.064220615 -0.11307692 -0.034861337
-0.054768078 -0.11371845 -0.035174895
-0.044769078 -0.11367664 -0.034915064
-0.034896512 -0.11386283 -0.035262119
-0.024915656 -0.11374938 -0.035405558
-0.015226115 -0.11372053 -0.034770992
-0.0050336816 -0.11376579 -0.035006147
0.0051613208 -0.11370163 -0.035129022
0.015225582 -0.11372042 -0.034770034
0.024915893 -0.11374952 -0.035406068
0.034965198 -0.11384021 -0.035292264
0.044826761 -0.11369473 -0.034883775
0.054900665 -0.11374468 -0.035163958
0.064220309 -0.1130527 -0.034973267
0.070436075 -0.11241572 -0.034993343
-0.070559479 -0.1046044 -0.036408063
-0.064858086 -0.10525335 -0.034948945
-0.059198942 -0.10082093 -0.035438247
0.059436124 -0.10594589 -0.034829266
0.065713868 -0.10514431 -0.034848023
0.070279732 -0.10633307 -0.036772888
-0.070391692 -0.095451064 -0.035626587
-0.064777188 -0.095014758 -0.034752827
-0.058123939 -0.093355656 -0.037678361
0.059448659 -0.094950847 -0.034094077
0.065325737 -0.095180027 -0.034937184
0.070331186 -0.095833167 -0.037367504
-0.07033857 -0.084887028 -0.037674822
-0.064797945 -0.085347578 -0.035285216
-0.059279092 -0.085146837 -0.035971757
0.059213914 -0.086242937 -0.03597087
0.065624736 -0.085276924 -0.035172813
0.070385739 -0.085306518 -0.035904836
-0.070496336 -0.075389147 -0.035520017
-0.065090269 -0.075077921 -0.035225436
-0.059824061 -0.075737946 -0.036849707
0.05928836 -0.074557841 -0.033572778
0.06519974 -0.074913047 -0.034926057
0.070369758 -0.074340582 -0.037731916
-0.070522122 -0.065477878 -0.033583965
-0.064884037 -0.064873651 -0.034844648
-0.059617903 -0.065407671 -0.036774334
0.059525035 -0.063858584 -0.035116877
0.064926401 -0.06490317 -0.034463827
0.07032302 -0.064100206 -0.037270151
-0.070597984 -0.054057855 -0.034652159
-0.064779542 -0.055148188 -0.034916639
-0.059589569 -0.055654261 -0.037815996
0.059398253 -0.054218803 -0.033569533
0.06509342 -0.055238124 -0.0350243
0.070402913 -0.053514827 -0.037110228
-0.07054165 -0.045385994 -0.034549873
-0.064959876 -0.044931576 -0.034615368
-0.059940156 -0.044406176 -0.033975605
0.059563022 -0.044760771 -0.034508772
0.065028042 -0.045181096 -0.034755956
0.070341498 -0.044527981 -0.037338633
-0.070592418 -0.035698295 -0.034555666
-0.064406425 -0.034800895 -0.034973685
-0.059503436 -0.033206563 -0.033899855
0.059232794 -0.035131574 -0.035067745
0.065110452 -0.034830574 -0.034597855
0.070514403 -0.035401311 -0.036271803
-0.070668951 -0.024158044 -0.036517277
-0.064560197 -0.024900159 -0.034685459
-0.059866883 -0.024141166 -0.032241013
0.059453122 -0.025709718 -0.034107585
0.065181114 -0.024887852 -0.034825433
0.070477262 -0.024461756 -0.035693686
-0.070737816 -0.015360111 -0.036195304
-0.064550802 -0.014661643 -0.034885909
-0.059654322 -0.01557034 -0.032346129
0.059467889 -0.015090458 -0.036266543
0.065084085 -0.01509597 -0.034340236
0.070387393 -0.014967261 -0.035802662
-0.070746273 -0.005829358 -0.037507743
-0.06448698 -0.0049039391 -0.034904342
-0.059646662 -0.0046596797 -0.033244621
0.0592467 -0.0057579232 -0.036735378
0.065384172 -0.0054436554 -0.034752216
0.070569634 -0.0056805173 -0.035644889
-0.070688277 0.005379424 -0.037758719
-0.064174935 0.0047788052 -0.034874979
-0.059744816 0.0047370121 -0.031675719
0.05945769 0.0033939481 -0.039507985
0.065203801 0.0043865405 -0.034877107
0.070393473 0.004588482 -0.034937873
-0.07066004 0.016148172 -0.037971608
-0.064602338 0.015111523 -0.034843583
-0.059470676 0.013225864 -0.031598058
0.05924134 0.015639164 -0.039482683
0.065179192 0.014851302 -0.034485254
0.07052689 0.015208757 -0.034497719
-0.070674621 0.026373154 -0.036994405
-0.064823642 0.025002591 -0.035085998
-0.059691045 0.024273895 -0.032220855
0.05902838 0.024656892 -0.039365083
0.065262258 0.024838382 -0.034726925
0.070372477 0.024287391 -0.035002425
-0.070483699 0.036784638 -0.038178496
-0.064716019 0.035011899 -0.035134662
-0.059545647 0.034825172 -0.03173589
0.058991533 0.035207793 -0.037814938
0.065061212 0.034898888 -0.034718197
0.070582621 0.03417509 -0.033982798
-0.070613116 0.043999445 -0.03649848
-0.064808264 0.045069691 -0.034945019
-0.059652474 0.044852629 -0.032234289
0.059242796 0.04577437 -0.037864722
0.065067656 0.045081329 -0.034680519
0.070490375 0.043906428 -0.034276549
-0.070548974 0.05549819 -0.034857836
-0.064585164 0.055165593 -0.034946643
-0.059527017 0.054300107 -0.033492386
0.059196126 0.056624025 -0.036416955
0.065354317 0.055122618 -0.034891315
0.070542224 0.054737892 -0.033968814
-0.070941806 0.066327415 -0.03431375
-0.064845182 0.065165885 -0.034780972
-0.059560858 0.063015722 -0.034981251
0.059266277 0.063612819 -0.035382837
0.06473317 0.064908884 -0.034577888
0.070521653 0.065642752 -0.034975518
-0.070793793 0.075890601 -0.034194238
-0.064565949 0.075105309 -0.034759875
-0.05957612 0.073423199 -0.035486575
0.059347931 0.073979057 -0.034342773
0.064785875 0.07490164 -0.03513217
0.070531063 0.075142637 -0.034827139
-0.071057245 0.084630355 -0.036090985
-0.064661607 0.085164107 -0.034948319
-0.059555989 0.085172027 -0.036665179
0.059639808 0.086341642 -0.036513418
0.065150522 0.085087746 -0.034803029
0.070559278 0.083937511 -0.0344861
-0.07116323 0.094789401 -0.035700478
-0.064747803 0.095238499 -0.034694511
-0.059685953 0.094383493 -0.036648117
0.059504177 0.096371375 -0.034448203
0.064961486 0.095224902 -0.03522411
0.070636965 0.09403526 -0.033971597
-0.070860654 0.10421439 -0.037172105
-0.064449891 0.10519858 -0.035052299
-0.059773751 0.10586365 -0.036212608
0.05962725 0.1049813 -0.034801938
0.064869411 0.10501537 -0.035032589
0.070489138 0.10569604 -0.034544244
-0.070434548 0.11441494 -0.037407547
-0.064189106 0.11492845 -0.035183161
-0.054406729 0.11594799 -0.042611334
-0.04514619 0.11640646 -0.037794158
-0.035797369 0.11600073 -0.041750278
-0.025612388 0.11641648 -0.038352393
-0.013261571 0.11564364 -0.04195565
-0.0041420446 0.11629275 -0.038403414
0.0057218107 0.11575132 -0.042131834
0.015002486 0.11563637 -0.041963834
0.024701752 0.11626934 -0.038336173
0.033772469 0.11573299 -0.041741952
0.044200443 0.11629199 -0.037795268
0.052610803 0.11565815 -0.042340558
0.062832773 0.11456043 -0.038232926
0.070494585 0.11526805 -0.034880754
-0.070719242 -0.11249523 -0.02438134
-0.064409979 -0.11315933 -0.024683928
-0.054648373 -0.11365493 -0.024998771
-0.044839554 -0.1136018 -0.02514448
-0.034878764 -0.11365437 -0.024796119
-0.02555833 -0.11365028 -0.025325283
-0.01534158 -0.11379833 -0.025058072
-0.0049348953 -0.11369905 -0.025138328
0.0049355519 -0.11370756 -0.025035547
0.015341033 -0.1137982 -0.025058649
0.025558263 -0.11365077 -0.025325021
0.034878545 -0.11365411 -0.024796322
0.044839513 -0.11360162 -0.025144616
0.054411698 -0.11371237 -0.024986129
0.064319618 -0.11314824 -0.025335802
0.070473388 -0.11070952 -0.022471964
-0.070745796 -0.10378167 -0.025067758
-0.065155618 -0.10535351 -0.024763647
-0.059552189 -0.10427023 -0.026029907
0.059242349 -0.1064213 -0.022729974
0.065069407 -0.10547648 -0.025287366
0.070423253 -0.10573172 -0.025779482
-0.070546225 -0.093074977 -0.02506467
-0.064986929 -0.095067896 -0.024780571
-0.0593969 -0.09291888 -0.024765072
0.058918484 -0.096527845 -0.024811722
0.065185398 -0.095013671 -0.025398226
0.070532881 -0.095577046 -0.024893917
-0.070539787 -0.086134873 -0.025852486
-0.064973786 -0.085074365 -0.024849646
-0.059253097 -0.084039614 -0.025681529
0.05911807 -0.084226646 -0.022902567
0.065130085 -0.085238017 -0.025374714
0.070463575 -0.085149147 -0.0245868
-0.070372045 -0.076292388 -0.024041798
-0.064988539 -0.074683502 -0.024557466
-0.059595861 -0.075018249 -0.026035743
0.059600145 -0.074860521 -0.025116917
0.065557972 -0.075160287 -0.025443681
0.070552394 -0.074725866 -0.023925146
-0.070578679 -0.06523221 -0.023589076
-0.064996377 -0.064370401 -0.024354655
-0.059398577 -0.062644556 -0.026373729
0.059296548 -0.064940378 -0.026731353
0.065019682 -0.064803541 -0.02493966
0.07039813 -0.066444665 -0.023579508
-0.070549376 -0.05514998 -0.023109108
-0.065117411 -0.054872137 -0.024438523
-0.059545569 -0.054461893 -0.02681951
0.059096087 -0.054350004 -0.026580587
0.065299809 -0.055490877 -0.025037337
0.070605017 -0.05525557 -0.024318049
-0.070391223 -0.045384802 -0.022579219
-0.065178365 -0.044802431 -0.024296056
-0.059270352 -0.044492107 -0.026351493
0.058499459 -0.045680463 -0.021578029
0.065243199 -0.044705145 -0.024727629
0.070431329 -0.04440416 -0.023759235
-0.070537671 -0.035567354 -0.02279768
-0.065228075 -0.034825582 -0.024688531
-0.059345163 -0.034789134 -0.026042312
0.059886098 -0.03630805 -0.027059987
0.065141521 -0.03464178 -0.02491731
0.070493631 -0.033669274 -0.023396205
-0.070561968 -0.025206173 -0.023802361
-0.065185189 -0.024784014 -0.024539985
-0.05926143 -0.025228113 -0.026277501
0.059681416 -0.021382615 -0.029922247
0.064892314 -0.024954708 -0.024864178
0.070384853 -0.023717113 -0.023257632
-0.070612989 -0.014519336 -0.02320542
-0.065411791 -0.014994788 -0.024876023
-0.05927445 -0.011594008 -0.026981056
0.059835613 -0.016173221 -0.027748182
0.064945221 -0.014813415 -0.024913961
0.070526294 -0.014302081 -0.023298232
-0.070763841 -0.0045294161 -0.023429964
-0.065053739 -0.0048997556 -0.024637463
-0.059435271 -0.0027858913 -0.027757615
0.059598908 -0.0047744066 -0.029322132
0.064581238 -0.0049037039 -0.024583958
0.070585065 -0.0047236001 -0.023389736
-0.070736863 0.0043768175 -0.02351672
-0.065471128 0.0054550944 -0.024946287
-0.059458252 0.0042911917 -0.028841205
0.059397455 0.0053212745 -0.028954726
0.064825363 0.0047004954 -0.024724053
0.070457138 0.0044939443 -0.022666764
-0.070791483 0.014466256 -0.024629278
-0.065388076 0.015400287 -0.024478221
-0.059535552 0.01527791 -0.028926987
0.059454784 0.013897814 -0.028154969
0.064951107 0.014544345 -0.02495629
0.070305355 0.015613767 -0.023249444
-0.070722558 0.024771273 -0.024004288
-0.065429941 0.024565592 -0.024539864
-0.059688136 0.027613491 -0.0265221
0.05947274 0.024242625 -0.027264189
0.064756766 0.024755202 -0.024904039
0.070482768 0.025714085 -0.022315819
-0.070839718 0.03464438 -0.024708644
-0.064996548 0.034664355 -0.024951955
-0.059657633 0.03651306 -0.025345206
0.05952061 0.03460747 -0.026189238
0.065049157 0.034933582 -0.024588021
0.070284761 0.033225264 -0.024265861
-0.070930995 0.045729503 -0.025365109
-0.065255016 0.044912085 -0.024701627
-0.059627444 0.045512915 -0.024158001
0.059778761 0.044025283 -0.025911897
0.064883403 0.044972643 -0.024637105
0.070316575 0.043467671 -0.022895951
-0.070771053 0.054846115 -0.024866398
-0.064858966 0.054763768 -0.024455421
-0.05967766 0.053957433 -0.028008401
0.059452232 0.052814458 -0.024009235
0.065015033 0.054752398 -0.024901871
0.070223637 0.054029088 -0.023090731
-0.070772745 0.064419419 -0.024497541
-0.064934857 0.065135546 -0.024864107
-0.059481997 0.064733841 -0.024472695
0.059583485 0.064100184 -0.023068625
0.065048851 0.064892314 -0.024586236
0.070375323 0.065267816 -0.024621904
-0.070665359 0.074526221 -0.024423953
-0.065090194 0.075737946 -0.024555877
-0.059662826 0.075886674 -0.024727985
0.059617806 0.076694094 -0.02382716
0.064992994 0.075223185 -0.024693955
0.070227638 0.075125299 -0.022635976
-0.070638798 0.083790228 -0.024844836
-0.064615332 0.085318945 -0.024836956
-0.059456222 0.08615984 -0.02331841
0.059472043 0.08452826 -0.024924345
0.065305211 0.085276455 -0.024888542
0.070513196 0.085346006 -0.025188295
-0.070786968 0.09502767 -0.026080873
-0.064857423 0.095125645 -0.024449853
-0.059543394 0.094942063 -0.025156304
0.059422337 0.096082591 -0.025126304
0.065177359 0.095375493 -0.025337659
0.070530489 0.09443415 -0.022880981
-0.070986256 0.10638388 -0.024489636
-0.064860865 0.10489036 -0.024539739
-0.05965947 0.10589923 -0.026671708
0.059463553 0.10743389 -0.024439022
0.065215923 0.10518099 -0.025182279
0.070720039 0.10371265 -0.025131412
-0.057381809 0.11586749 -0.066866115
-0.063546784 0.11504049 -0.027354285
-0.054899465 0.11642294 -0.031335719
-0.039822847 0.11539391 -0.038934119
-0.033107523 0.1161011 -0.031315338
-0.021002525 0.11545392 -0.03752248
-0.013217895 0.11606978 -0.032102015
-0.0057890117 0.1127125 -0.034634914
0.0033088012 0.11020329 -0.033748545
0.013442528 0.1127458 -0.031919479
0.021533405 0.1095297 -0.037238147
0.033334084 0.11300103 -0.031153139
0.040395431 0.10902498 -0.038600881
0.055171382 0.11332888 -0.031123258
0.064212635 0.11370461 -0.032200914
0.070485428 0.11375392 -0.022589553
-0.0027540103 -0.052896723 -0.02379591
-0.061653025 -0.11107624 -0.015339669
-0.055101477 -0.11205806 -0.01541352
-0.045394994 -0.11056608 -0.01592621
-0.033564799 -0.1121242 -0.015592596
-0.022331694 -0.110139 -0.016076261
-0.015817096 -0.11197235 -0.015367738
-0.0065191132 -0.11024524 -0.015574408
0.0058386121 -0.11189483 -0.015383765
0.015749404 -0.1119911 -0.015338945
0.02421462 -0.10970808 -0.016134905
0.033496089 -0.11188196 -0.01553828
0.043837231 -0.11004522 -0.015965451
0.055079009 -0.11185182 -0.015350563
0.063910596 -0.11306159 -0.014986632
0.070309907 -0.11396635 -0.01687783
-0.07073462 -0.10551696 -0.014583702
-0.065443732 -0.10524139 -0.015336194
-0.05937361 -0.10504837 -0.014348559
0.058937091 -0.10572596 -0.014561113
0.06551519 -0.10566732 -0.015003655
0.070541263 -0.10477882 -0.012861005
-0.070741326 -0.094628088 -0.014394388
-0.065224551 -0.095049426 -0.014919709
-0.05921942 -0.094654359 -0.01309514
0.059223406 -0.093310222 -0.013440873
0.065248355 -0.095302932 -0.015519779
0.070669256 -0.094338916 -0.012832467
-0.070580982 -0.084500164 -0.01524714
-0.065425538 -0.085087508 -0.014993363
-0.05943574 -0.084024787 -0.014936736
0.059699737 -0.086332761 -0.017609796
0.065673761 -0.085079975 -0.015499241
0.070592895 -0.084581494 -0.011265894
-0.070610687 -0.074022092 -0.016195759
-0.065368854 -0.075237826 -0.015198526
-0.059134185 -0.075416759 -0.014821574
0.059332591 -0.074736014 -0.01579015
0.065167777 -0.074716017 -0.015282781
0.070434757 -0.076397873 -0.012886251
-0.070590593 -0.066811584 -0.014539159
-0.065098658 -0.065194324 -0.01491284
-0.059615821 -0.064695932 -0.015552334
0.059344389 -0.065216213 -0.018408801
0.065596648 -0.064611711 -0.015292306
0.070628569 -0.064798772 -0.014112394
-0.070691474 -0.05545447 -0.014580387
-0.065286331 -0.055291343 -0.015111511
-0.059522662 -0.05387358 -0.015387081
0.059383951 -0.055874977 -0.015394881
0.065472923 -0.05488658 -0.01496546
0.070566416 -0.055503931 -0.013816441
-0.070797667 -0.043620013 -0.015852816
-0.065363318 -0.04520737 -0.015035274
-0.059765857 -0.043328244 -0.013566252
0.059359156 -0.044568069 -0.015934233
0.065251969 -0.044734217 -0.015183093
0.070511796 -0.045800496 -0.015838087
-0.070740737 -0.034702491 -0.015490815
-0.065276816 -0.03512083 -0.014989733
-0.059545357 -0.033209004 -0.013703644
0.059041705 -0.033279832 -0.01656943
0.065458246 -0.034502268 -0.014706026
0.070589364 -0.034699488 -0.015502692
-0.070682816 -0.025992643 -0.016325772
-0.065020032 -0.025064087 -0.014691655
-0.059522487 -0.023269776 -0.014556959
0.059320379 -0.024012024 -0.014722633
0.065039881 -0.024792092 -0.014610245
0.070620321 -0.024995806 -0.015218931
-0.070745461 -0.015702156 -0.016796488
-0.065121025 -0.014993174 -0.015018557
-0.059502974 -0.014967218 -0.014150362
0.059374802 -0.015190884 -0.015580645
0.06544707 -0.015156342 -0.01473451
0.07054802 -0.015486849 -0.016498405
-0.070751667 -0.0051989183 -0.017809426
-0.065045312 -0.0051502888 -0.014977682
-0.05955204 -0.0042986823 -0.014899204
0.059520453 -0.0034828372 -0.014217548
0.065333545 -0.0051620235 -0.014407955
0.070564076 -0.0050169388 -0.015094802
-0.070635967 0.0058560874 -0.018025264
-0.06478402 0.0047733025 -0.014858918
-0.059886456 0.0047823987 -0.016443998
0.059367608 0.0047306269 -0.013894012
0.064801797 0.005010678 -0.014448651
0.070505917 0.0056070751 -0.015054043
-0.07056623 0.015085517 -0.017508877
-0.065033525 0.014785091 -0.01466103
-0.059623372 0.014203261 -0.016008001
0.059499107 0.014626428 -0.013070047
0.065120101 0.014986061 -0.01437957
0.070724078 0.015545082 -0.016330911
-0.070717685 0.02482795 -0.015403531
-0.064531088 0.024742048 -0.014825675
-0.059299987 0.024232507 -0.0166359
0.059627753 0.026144348 -0.012010686
0.064865418 0.024401408 -0.014457159
0.070705004 0.024859393 -0.015726727
-0.07057634 0.035077434 -0.014668083
-0.064942017 0.035268754 -0.014725785
-0.059563309 0.036722958 -0.017146304
0.059658505 0.033877175 -0.011541317
0.065101944 0.034773085 -0.014741532
0.070694573 0.033714887 -0.015786234
-0.070714355 0.043815702 -0.014024109
-0.064693816 0.045161221 -0.014964022
-0.059880257 0.04260233 -0.017597228
0.059515387 0.044827677 -0.012106895
0.064965419 0.044871982 -0.014393986
0.07064046 0.045251515 -0.016149208
-0.070837542 0.054727763 -0.014163019
-0.064611755 0.054838255 -0.015074897
-0.059745379 0.054752748 -0.018460533
0.059749864 0.056194037 -0.011273841
0.064836822 0.054921877 -0.014647642
0.070702478 0.055864997 -0.016678967
-0.070641875 0.064978011 -0.01371558
-0.064733639 0.065365307 -0.015312327
-0.059523426 0.065135419 -0.017291367
0.059367001 0.066967696 -0.014341533
0.064889193 0.06537313 -0.014960838
0.070636071 0.065117292 -0.015694089
-0.070755675 0.075215794 -0.014278339
-0.06435322 0.075381309 -0.015323902
-0.059217129 0.073591173 -0.017072648
0.059332713 0.076649785 -0.015837789
0.064705595 0.075331077 -0.015050134
0.071048908 0.074617684 -0.015665036
-0.070716843 0.085256018 -0.014065037
-0.064728491 0.085334323 -0.015118271
-0.05950179 0.082573265 -0.019263387
0.059347622 0.088597089 -0.017427376
0.064974189 0.085361138 -0.01518019
0.070642278 0.083044067 -0.015602352
-0.070921481 0.093814716 -0.015720395
-0.064955398 0.095148548 -0.015226521
-0.059469081 0.092113107 -0.018002033
0.059590619 0.095815584 -0.019359186
0.064734429 0.095051363 -0.015381264
0.070876494 0.093941644 -0.013692193
-0.070836969 0.10484396 -0.014644402
-0.06468273 0.10484549 -0.015230493
-0.059367489 0.10329212 -0.015341064
0.05956341 0.10463706 -0.017418396
0.06493026 0.10500986 -0.015106911
0.070886694 0.10545949 -0.013290698
-0.070631064 0.11481505 -0.015157166
-0.064754896 0.11472704 -0.015018357
-0.055112861 0.11660613 -0.01525362
-0.045141578 0.11675382 -0.015478038
-0.035297237 0.11676412 -0.014736166
-0.025459997 0.1167665 -0.014868163
-0.015223114 0.11670055 -0.015346865
-0.0046310509 0.11678395 -0.015341589
0.0049488023 0.11680473 -0.015273278
0.015290288 0.11670749 -0.015378272
0.025460154 0.11676685 -0.014867342
0.035296906 0.11676397 -0.014736181
0.045141339 0.11675389 -0.015478004
0.055237804 0.11610319 -0.015424627
0.064679712 0.11226115 -0.015166223
0.070712827 0.11514758 -0.014563402
-0.070495233 -0.113352 -0.0039945021
-0.060739614 -0.10993396 -0.0060668895
-0.053702448 -0.11241546 -0.0055710156
-0.045692928 -0.11101269 -0.0056485329
-0.03557064 -0.11229989 -0.0051966077
-0.022433436 -0.1109375 -0.0059794812
-0.014209338 -0.11244835 -0.0053507355
-0.006467497 -0.11092874 -0.0058874376
0.0041302238 -0.11218708 -0.0053935284
0.015733963 -0.11231546 -0.0054315994
0.02611501 -0.11057483 -0.0061501488
0.033681188 -0.11199624 -0.005274781
0.041923858 -0.11047072 -0.0055866451
0.055324432 -0.11211862 -0.0056708734
0.064386867 -0.11285833 -0.0050590318
0.070460021 -0.11136036 -0.0059694201
-0.070542641 -0.1057701 -0.0053999783
-0.065462895 -0.10474616 -0.0051406771
-0.059541546 -0.10350139 -0.0058144182
0.059436135 -0.10477277 -0.0055783056
0.065245174 -0.10506579 -0.005029235
0.070608534 -0.10578725 -0.0041006096
-0.070531622 -0.094883464 -0.0043574944
-0.065039746 -0.095014222 -0.0046579917
-0.059303589 -0.095232435 -0.0055995248
0.059479591 -0.095339015 -0.0047087669
0.065188438 -0.095000081 -0.0054388773
0.070430249 -0.095976315 -0.00618577
-0.070585608 -0.084911145 -0.0053561367
-0.065311104 -0.085232221 -0.0049591139
-0.059549116 -0.08443819 -0.0065363748
0.059469786 -0.083754741 -0.0051493049
0.065175839 -0.085165747 -0.0053586825
0.070452884 -0.083968759 -0.0045183748
-0.070547074 -0.075254902 -0.0046963915
-0.064865738 -0.07473471 -0.0050986772
-0.059799448 -0.073726855 -0.0052479259
0.059235193 -0.073643871 -0.0054610968
0.065591805 -0.075267188 -0.0052919299
0.07048329 -0.072875425 -0.0047674864
-0.070561886 -0.065631859 -0.005368331
-0.065086216 -0.064803548 -0.0047337567
-0.05925218 -0.065480575 -0.0048300684
0.059564356 -0.064673424 -0.0034708008
0.064738415 -0.065230347 -0.005176316
0.070311941 -0.06397222 -0.0053945482
-0.070522234 -0.056254674 -0.0045824647
-0.06524922 -0.05512248 -0.0053023864
-0.059795208 -0.053961255 -0.0031448193
0.059144896 -0.055352502 -0.0050459555
0.065138496 -0.055271171 -0.0053309733
0.070449293 -0.054476712 -0.0062552011
-0.070545256 -0.046429239 -0.0056898482
-0.064947844 -0.04477451 -0.0047477456
-0.059560802 -0.045593929 -0.0031722428
0.059366643 -0.04266537 -0.0037163422
0.064941928 -0.045080665 -0.0052041067
0.070379846 -0.04384334 -0.0067331456
-0.070566386 -0.035645891 -0.0051422333
-0.064885236 -0.035040539 -0.0051143789
-0.059799206 -0.035698041 -0.0022678748
0.059634142 -0.033896673 -0.0043029115
0.064941257 -0.035003293 -0.0048592836
0.070347697 -0.035786822 -0.0068598818
-0.070543341 -0.024683153 -0.006508044
-0.064648196 -0.025055541 -0.0048690401
-0.059763122 -0.027372867 -0.0038880408
0.059512317 -0.024395349 -0.0022300717
0.065063931 -0.024881508 -0.0051083132
0.070421599 -0.025433481 -0.0073653813
-0.070475295 -0.016548449 -0.0067575756
-0.064562283 -0.01512504 -0.0048340396
-0.059774511 -0.014995138 -0.0017405748
0.059541762 -0.014965342 -0.0042232452
0.065299541 -0.014881277 -0.0049710916
0.070427947 -0.014091994 -0.0069178822
-0.070532732 -0.006081651 -0.006201115
-0.064884923 -0.0051586246 -0.0049229641
-0.059747592 -0.0037005916 -0.0010905862
0.059204169 -0.0067938203 -0.0038334876
0.065275967 -0.0053699557 -0.0049590617
0.070450507 -0.0047336752 -0.0071523846
-0.070704646 0.0051188064 -0.0070740483
-0.06428358 0.0043734694 -0.0050180061
-0.059775785 0.0048232526 -0.0016062707
0.059312001 0.004629394 -0.0032923371
0.065456614 0.0045981738 -0.0049852235
0.070584416 0.0037731531 -0.0066411626
-0.070528045 0.013816737 -0.0068461001
-0.064691052 0.014653766 -0.0047707111
-0.059843294 0.014992392 -0.0023689568
0.059429456 0.013955913 -0.0045771361
0.065610759 0.014686476 -0.0046306089
0.070703618 0.015103716 -0.0059914421
-0.070447981 0.024762738 -0.0065832487
