# .PCD v0.7 - Point Cloud Data file format
VERSION 0.7
FIELDS x y z
SIZE 4 4 4
TYPE F F F
COUNT 1 1 1
WIDTH 1314
HEIGHT 1
VIEWPOINT 0 0 0 1 0 0 0
POINTS 1314
DATA ascii
0.20457849 -0.14456935 -0.57719147
0.17262816 -0.18072936 -0.61350143
0.16019697 -0.13541657 -0.6396718
0.15878758 -0.1642711 -0.6426388
0.17326361 -0.1591469 -0.61216366
0.18822002 -0.18234783 -0.58067721
0.15262139 -0.13331722 -0.6556201
0.16103393 -0.1244315 -0.63891006
0.16721424 -0.12523524 -0.62489891
0.1738247 -0.13699067 -0.61098242
0.19442549 -0.1352461 -0.57237238
0.18790035 -0.19256881 -0.58135021
0.18225655 -0.20087627 -0.60285658
0.15041505 -0.18281922 -0.66026461
0.15817411 -0.20087625 -0.65051317
0.17339934 -0.1331871 -0.61187792
0.16095987 -0.15367492 -0.6380657
0.18097898 -0.14624462 -0.5959211
0.17550984 -0.17942411 -0.60743487
0.15144306 -0.18395469 -0.65810049
0.16031085 -0.17255633 -0.63943195
0.17929985 -0.15139578 -0.59945607
0.15845026 -0.13025615 -0.67294931
0.16997354 -0.18008855 -0.6190899
0.1636804 -0.16680589 -0.63233835
0.19905168 -0.12443148 -0.57481849
0.16046278 -0.20087625 -0.66368747
0.16242915 -0.20087627 -0.65733629
0.19102971 -0.15375607 -0.57476211
0.15417387 -0.13472165 -0.6709165
0.20215087 -0.15431342 -0.57603669
0.14701901 -0.16067487 -0.66751182
0.16091669 -0.12735848 -0.63815665
0.15803593 -0.1544569 -0.64422119
0.18735459 -0.17682339 -0.58249909
0.15814739 -0.16662607 -0.64398646
0.17290053 -0.16179921 -0.61292803
0.18980581 -0.19594932 -0.57733876
0.14808053 -0.13779306 -0.66517949
0.19870275 -0.16102676 -0.57439798
0.17080948 -0.18499115 -0.61733007
0.18807492 -0.20072688 -0.58098263
0.14929624 -0.12443149 -0.66367286
0.16534859 -0.20087627 -0.64430887
0.1890956 -0.20087627 -0.60875583
0.15768591 -0.14277051 -0.67258227
0.18059337 -0.12443148 -0.61229575
0.19922714 -0.12699887 -0.57465494
0.17055896 -0.14709722 -0.61785752
0.1918059 -0.13228707 -0.57312804
0.16128036 -0.16850765 -0.63739097
0.16858378 -0.18118185 -0.62201566
0.15007725 -0.15730916 -0.66896492
0.19012013 -0.17381218 -0.57667702
0.17846549 -0.20087627 -0.60222626
0.15273571 -0.14508729 -0.67023045
0.15748128 -0.17563801 -0.67247874
0.16326754 -0.20087625 -0.64181882
0.16629431 -0.20087625 -0.65834832
0.20345758 -0.1418236 -0.57665986
0.16385356 -0.19660211 -0.63197368
0.19672066 -0.20087627 -0.5855844
0.16456147 -0.20087625 -0.66080046
0.15582478 -0.14888355 -0.64887619
0.18355547 -0.15836218 -0.59049708
0.17153379 -0.20087627 -0.61655909
0.1528424 -0.13033438 -0.65515476
0.16779317 -0.14236276 -0.62368011
0.15322235 -0.13198337 -0.67046541
0.16456303 -0.12521201 -0.63048023
0.19502413 -0.20087627 -0.59442484
0.19866085 -0.15663144 -0.57437921
0.17523825 -0.14592783 -0.6080066
0.15787828 -0.14363883 -0.64455324
0.17292267 -0.13914907 -0.61288142
0.14987229 -0.16716291 -0.66140735
0.17658773 -0.15342432 -0.60516572
0.16162241 -0.20087627 -0.64383882
0.1496018 -0.15323968 -0.66197681
0.15768866 -0.13372421 -0.64495242
0.20473261 -0.19183497 -0.57725406
0.15182896 -0.16497752 -0.6697948
0.16990075 -0.18926227 -0.61924314
0.1818883 -0.12464056 -0.59400678
0.18124001 -0.17374676 -0.59537166
0.16350716 -0.12443149 -0.65000534
0.18604963 -0.13471459 -0.58524626
0.1818167 -0.16605772 -0.59415758
0.17333621 -0.1565223 -0.61201084
0.17862429 -0.12443148 -0.60088205
0.18849571 -0.1415851 -0.58009672
0.16786119 -0.20087625 -0.63358057
0.16752583 -0.15551007 -0.62424302
0.17855856 -0.12443149 -0.61496413
0.19062246 -0.15093482 -0.57561952
0.16608968 -0.17287302 -0.62726629
0.20177519 -0.20087627 -0.57700282
0.15897015 -0.12443149 -0.66401982
0.16410331 -0.14566417 -0.63144809
0.19055468 -0.20087627 -0.57847321
0.1906347 -0.12443148 -0.58430475
0.20171453 -0.14993422 -0.5758298
0.19585896 -0.18681887 -0.57304025
0.20365669 -0.13784881 -0.5767557
0.15925293 -0.19909711 -0.64165896
0.17789614 -0.16616586 -0.60241121
0.14718133 -0.15439399 -0.66707247
0.15397704 -0.12501486 -0.67082602
0.19340709 -0.20087627 -0.59031677
0.15440106 -0.17700928 -0.67101395
0.19000287 -0.14173611 -0.57692385
0.18157165 -0.18046832 -0.59467345
0.17828672 -0.15360832 -0.6015889
0.15337658 -0.13905211 -0.65403026
0.17389745 -0.19969258 -0.61082917
0.17277658 -0.16883016 -0.61318898
0.19481924 -0.12443148 -0.573928
0.18402182 -0.14095908 -0.58951521
0.1508719 -0.18858491 -0.65930277
0.15878801 -0.13227797 -0.64263797
0.18488932 -0.18011366 -0.58768904
0.15859833 -0.17946517 -0.64303708
0.17598921 -0.17496787 -0.60642564
0.1731461 -0.20087625 -0.6361593
0.19876119 -0.20087627 -0.57640797
0.19644426 -0.12443148 -0.59454191
0.18728633 -0.16815421 -0.58264279
0.15831164 -0.16088173 -0.67287451
0.17477822 -0.1947951 -0.60897493
0.19260083 -0.19517761 -0.57149005
0.18270661 -0.14795955 -0.59228408
0.18403496 -0.20005801 -0.58948761
0.15259334 -0.14840823 -0.65567905
0.17588525 -0.19724992 -0.60664445
0.15426809 -0.12443149 -0.66025394
0.17697293 -0.20087627 -0.62546468
0.16030432 -0.15811048 -0.63944578
0.15078649 -0.15427618 -0.65948278
0.2048126 -0.15996212 -0.57729888
0.19237864 -0.16357702 -0.57192236
0.15424776 -0.19082102 -0.67093831
0.19777963 -0.17145596 -0.57395673
0.14762083 -0.1244315 -0.66691685
0.16172187 -0.13052671 -0.63646156
0.17713133 -0.15973473 -0.60402131
0.1700929 -0.17112544 -0.61883873
0.1499283 -0.19731024 -0.66128922
0.17647666 -0.16601515 -0.60539955
0.16991146 -0.12443149 -0.64459139
0.17625652 -0.17761871 -0.60586292
0.16750824 -0.18120942 -0.62427986
0.17276147 -0.14969686 -0.61322081
0.15451151 -0.19881035 -0.65164059
0.15089427 -0.1478308 -0.65925592
0.20450777 -0.1662617 -0.5771544
0.14834841 -0.20087625 -0.66532612
0.19199613 -0.15543635 -0.57272762
0.14893954 -0.17432746 -0.66337091
0.15877143 -0.17692026 -0.64267266
0.18737575 -0.12888958 -0.5824545
0.1755732 -0.16449057 -0.60730147
0.19192746 -0.13869743 -0.5728721
0.16649315 -0.13209814 -0.62641704
0.17316326 -0.18773627 -0.61237478
0.19463028 -0.15066688 -0.57246572
0.18480587 -0.17672099 -0.58786476
0.2015079 -0.157455 -0.57573164
0.17563944 -0.14966723 -0.60716206
0.18837987 -0.12556514 -0.58034056
0.18740609 -0.13567191 -0.58239061
0.16864124 -0.16852945 -0.62189478
0.17552254 -0.19037996 -0.60740805
0.15030596 -0.19468263 -0.66049427
0.14807078 -0.12624453 -0.66520011
0.15569806 -0.16321202 -0.64914292
0.15166037 -0.15800184 -0.65764308
0.15484491 -0.17377028 -0.67122507
0.18161643 -0.15391585 -0.59457916
0.16944835 -0.13839021 -0.62019563
0.15082107 -0.14502835 -0.65941
0.17582965 -0.20087625 -0.60964632
0.19054963 -0.19093072 -0.57577282
0.15315256 -0.18426192 -0.67041993
0.19329768 -0.12443149 -0.60106754
0.16019833 -0.18572591 -0.63966876
0.16094939 -0.14777122 -0.63808781
0.17515343 -0.19901136 -0.60818505
0.16942322 -0.12443149 -0.63144708
0.14978892 -0.20051509 -0.66158265
0.16124576 -0.18924332 -0.63746363
0.16265008 -0.17141953 -0.63450742
0.16758031 -0.12443149 -0.64532095
0.16318533 -0.15203939 -0.63338065
0.17958483 -0.12443149 -0.60539699
0.16142295 -0.20087625 -0.64014995
0.17873415 -0.19360748 -0.60064691
0.14824472 -0.18084675 -0.66483355
0.1808559 -0.12907316 -0.5961802
0.14700098 -0.14578672 -0.66745216
0.16299003 -0.18181393 -0.63379163
0.16532403 -0.15971902 -0.62887824
0.14702776 -0.17412601 -0.66739559
0.17369592 -0.19627358 -0.61125338
0.17222711 -0.20087625 -0.6395281
0.19106811 -0.12443148 -0.60574383
0.1759567 -0.15629499 -0.60649419
0.18755156 -0.14046244 -0.58208442
0.18379508 -0.20087627 -0.59796911
0.20333679 -0.16852777 -0.57659775
0.18438435 -0.12443148 -0.60807985
0.17227313 -0.19523041 -0.61424875
0.16163249 -0.18229133 -0.63664949
0.18555909 -0.20025739 -0.58627892
0.19105992 -0.14633255 -0.57469851
0.16746649 -0.1352212 -0.62436783
0.14977989 -0.14743564 -0.66160196
0.1515561 -0.1244315 -0.66203219
0.16150516 -0.20087625 -0.66785783
0.14984637 -0.1260957 -0.66146207
0.18317182 -0.1898842 -0.59130472
0.15020657 -0.16960497 -0.6607036
0.16051 -0.19887374 -0.63901246
0.17689165 -0.12443149 -0.62657344
0.18796059 -0.20087627 -0.61211872
0.17798039 -0.18861397 -0.60223377
0.17829575 -0.12443148 -0.61053205
0.18565643 -0.15810722 -0.58607405
0.15658917 -0.15636435 -0.64726698
0.19756246 -0.20087627 -0.58865201
0.1782431 -0.17253433 -0.60168076
0.17524731 -0.15853229 -0.60798752
0.20065428 -0.1647402 -0.57532424
0.17447183 -0.12443149 -0.63617241
0.15932374 -0.14772156 -0.64151019
0.15581638 -0.20087627 -0.65905499
0.15977144 -0.1691891 -0.64056754
0.18178625 -0.14164612 -0.59422159
0.15680404 -0.16863137 -0.67215723
0.1884115 -0.1298942 -0.58027399
0.18179633 -0.18292999 -0.59420049
0.17864984 -0.19086541 -0.60082442
0.15859571 -0.15096012 -0.67301196
0.14982599 -0.17191945 -0.66150481
0.15346138 -0.17866372 -0.65385139
0.18483779 -0.12443148 -0.61410594
0.18737502 -0.17944968 -0.58245605
0.18865952 -0.14670992 -0.57975191
0.14769818 -0.14223258 -0.66783899
0.19081225 -0.13961585 -0.57521993
0.15561309 -0.18841155 -0.64932162
0.18847772 -0.1958569 -0.58013463
0.17089999 -0.17880836 -0.61713958
0.15274604 -0.19296764 -0.6553573
0.19041964 -0.17886499 -0.57604647
0.18679944 -0.20087627 -0.59551406
0.18249649 -0.20087627 -0.61304349
0.15710971 -0.1244315 -0.64829969
0.18325397 -0.16822115 -0.59113175
0.19054729 -0.19379672 -0.57577777
0.15306213 -0.16463481 -0.65469205
0.17234713 -0.20087625 -0.64532578
0.15014906 -0.13118282 -0.66900575
0.15192957 -0.16555594 -0.6570763
0.15997082 -0.1244315 -0.67104417
0.17007118 -0.18300429 -0.61888433
0.20430321 -0.15683734 -0.5770573
0.19019553 -0.20087627 -0.58507288
0.15193379 -0.18075898 -0.65706736
0.14935027 -0.1809788 -0.66250616
0.15257938 -0.17016874 -0.65570831
0.15816215 -0.20087625 -0.66132522
0.17742354 -0.13868038 -0.60340607
0.15287742 -0.19016477 -0.6550808
0.17188385 -0.20087627 -0.61952585
0.19051656 -0.17034453 -0.57584244
0.15913592 -0.17441916 -0.64190537
0.18419084 -0.13410515 -0.58915943
0.17161778 -0.13741568 -0.61562848
0.16560933 -0.19789697 -0.62827736
0.17755458 -0.15559366 -0.60313022
0.15894596 -0.18396139 -0.64230525
0.15767106 -0.17543647 -0.64498925
0.18287809 -0.20087627 -0.62313294
0.17554146 -0.12459512 -0.60736823
0.15888566 -0.20087624 -0.64814782
0.14930232 -0.12847829 -0.66260743
0.19919366 -0.14821123 -0.57463443
0.16769646 -0.17066558 -0.62388372
0.18049932 -0.18184349 -0.59693092
0.15207252 -0.19816488 -0.65677518
0.19615522 -0.12646802 -0.57319593
0.1865872 -0.15057629 -0.58411455
0.17003086 -0.12864132 -0.61896932
0.17269239 -0.17219587 -0.61336625
0.15667726 -0.20087627 -0.65293843
0.15541036 -0.16104509 -0.67149651
0.15898095 -0.17193279 -0.67319214
0.16711268 -0.14511883 -0.62511271
0.16958004 -0.20087627 -0.64005554
0.19026321 -0.12976189 -0.57637572
0.19897079 -0.17877945 -0.57452077
0.17097713 -0.13354345 -0.61697721
0.18643963 -0.20087627 -0.60070431
0.16233081 -0.19852275 -0.6351794
0.17086676 -0.1917266 -0.61720943
0.18737705 -0.12443148 -0.58330119
0.19964184 -0.12443148 -0.58559597
0.15869093 -0.13314795 -0.67306274
0.16121438 -0.19619286 -0.63752967
0.16302907 -0.16877241 -0.63370955
0.15092298 -0.16154499 -0.66936547
0.18515806 -0.1520644 -0.58712327
0.19117673 -0.12787494 -0.57445258
0.16676795 -0.16460691 -0.62583846
0.19636256 -0.15873872 -0.57328671
0.16526723 -0.1885533 -0.62899756
0.19147924 -0.18796349 -0.57381588
0.15615532 -0.17500435 -0.64818019
0.15285698 -0.16830415 -0.67028213
0.177169 -0.14474222 -0.60394198
0.15871105 -0.12572518 -0.64279997
0.1718632 -0.1759477 -0.61511183
0.16985677 -0.15959185 -0.61933583
0.17550206 -0.16950735 -0.60745126
0.17263436 -0.13034089 -0.61348844
0.1503658 -0.15135482 -0.6691035
0.1882523 -0.16160347 -0.5806092
0.1683588 -0.14459339 -0.62248933
0.16333176 -0.12849602 -0.63307238
0.15310767 -0.15211801 -0.65459621
0.15869164 -0.19653481 -0.67304742
0.15261075 -0.20087627 -0.66971362
0.16256705 -0.17739052 -0.63468218
0.16225287 -0.19039454 -0.63534343
0.14762586 -0.15101922 -0.66780245
0.18225634 -0.20087625 -0.60923296
0.16647729 -0.16225235 -0.6264503
0.17898479 -0.12443149 -0.63110209
0.18403155 -0.19500625 -0.58949476
0.15639472 -0.1244315 -0.66259331
0.16348898 -0.12443149 -0.65327114
0.19755092 -0.12443148 -0.57713914
0.18596016 -0.1266629 -0.58543456
0.19934894 -0.20087627 -0.58333093
0.1746012 -0.15590489 -0.60934776
0.19892266 -0.17579591 -0.57449865
0.18998715 -0.1530461 -0.57695699
0.19645818 -0.17398615 -0.57332826
0.18498468 -0.12443148 -0.60485452
0.14717105 -0.19646172 -0.66709381
0.19781356 -0.20087627 -0.57918048
0.14765216 -0.15703389 -0.66781342
0.15833369 -0.18073988 -0.67288214
0.19202459 -0.16615926 -0.57266772
0.17438139 -0.18916541 -0.60981047
0.19970272 -0.15346956 -0.57487506
0.16566327 -0.18176371 -0.62816393
0.18199843 -0.12443148 -0.62371415
0.15173805 -0.13719726 -0.66975868
0.15343188 -0.14178461 -0.67056191
0.19237092 -0.15917031 -0.57193857
0.16909859 -0.15307155 -0.62093198
0.15872435 -0.16062337 -0.64277196
0.18485133 -0.16149223 -0.58776897
0.14812347 -0.18430425 -0.66508883
0.170534 -0.20087627 -0.62272376
0.16114286 -0.13400805 -0.63768053
0.18735886 -0.15585782 -0.58249009
0.15680008 -0.15410236 -0.67215818
0.17884156 -0.14401606 -0.60042083
0.20109521 -0.17951271 -0.57552993
0.15695886 -0.15366285 -0.64648867
0.17468929 -0.20087625 -0.63996327
0.14728251 -0.13264243 -0.66685963
0.18229479 -0.15809885 -0.59315103
0.16394359 -0.13088958 -0.63178432
0.17854342 -0.19853324 -0.60104847
0.17029384 -0.12443149 -0.64993626
0.15864491 -0.16950449 -0.64293909
0.19151062 -0.16939196 -0.57374972
0.17870739 -0.14099655 -0.60070336
0.15443973 -0.13950051 -0.65179205
0.15110183 -0.13016188 -0.65881908
0.16663122 -0.18942006 -0.62612617
0.18669666 -0.14516543 -0.58388412
0.16568777 -0.14665674 -0.62811244
0.17768382 -0.17624904 -0.60285819
0.19265227 -0.20087627 -0.58368754
0.18849625 -0.15183885 -0.58009565
0.15576242 -0.19735432 -0.64900714
0.16145308 -0.15967607 -0.63702738
0.20393673 -0.14729127 -0.57688576
0.15581003 -0.18581492 -0.64890707
0.17530641 -0.13505833 -0.60786313
0.15522982 -0.13837636 -0.671417
0.16128367 -0.20087627 -0.65348369
0.14978871 -0.20087625 -0.66873378
0.17521311 -0.18251008 -0.60805953
0.19809687 -0.18494409 -0.57410395
0.17207339 -0.12468991 -0.61466926
0.14987391 -0.13290688 -0.66140407
0.15186849 -0.15426065 -0.65720505
0.15534668 -0.16042051 -0.64988267
0.1945724 -0.12443148 -0.59861904
0.15035082 -0.17725717 -0.66039985
0.15401036 -0.16399473 -0.67083097
0.20038243 -0.16849226 -0.57519412
0.15023676 -0.18290097 -0.66903418
0.14919157 -0.13700587 -0.66284055
0.18225972 -0.12443148 -0.59912181
0.147103 -0.17133316 -0.66723722
0.182116 -0.18825561 -0.59352744
0.20412305 -0.18502703 -0.57696652
0.17615727 -0.20087627 -0.63138795
0.19127907 -0.15807387 -0.57423717
0.15057853 -0.17967516 -0.65992045
0.15170999 -0.12742026 -0.65753871
0.17632194 -0.14735779 -0.60572529
0.15806469 -0.17284429 -0.64416051
0.18013854 -0.19296406 -0.59769034
0.15834442 -0.16337766 -0.67289013
0.20146891 -0.17133123 -0.57570958
0.15611279 -0.12443149 -0.65795738
0.18206543 -0.1609505 -0.59363395
0.15406746 -0.15238516 -0.67086101
0.1736578 -0.16736884 -0.61133385
0.17179377 -0.16785049 -0.61525798
0.16128702 -0.12443149 -0.64188552
0.18211448 -0.12443148 -0.61816323
0.18793535 -0.12443148 -0.60252243
0.16006088 -0.18301573 -0.63995814
0.1784741 -0.20087627 -0.60512263
0.14852729 -0.14992887 -0.66423893
0.18518186 -0.14000455 -0.58707309
0.16227792 -0.14228341 -0.63529098
0.17323893 -0.15300028 -0.61221564
0.1939518 -0.14709413 -0.57214427
0.16879126 -0.16244285 -0.62157893
0.15105666 -0.16133943 -0.65891397
0.20477732 -0.19539198 -0.5772742
0.16798645 -0.1883561 -0.62327313
0.18255365 -0.1935797 -0.59260607
0.17799141 -0.12443148 -0.60330892
0.17499687 -0.15213582 -0.60851479
0.18692355 -0.19556522 -0.58340651
0.17841247 -0.20087627 -0.621315
0.16284855 -0.15936869 -0.63408965
0.14843051 -0.12705001 -0.66819072
0.1579873 -0.1244315 -0.65989053
0.16425654 -0.14865378 -0.63112551
0.17102985 -0.12769955 -0.61686623
0.1557067 -0.15373448 -0.64912468
0.15363479 -0.13638355 -0.65348667
0.18651688 -0.1873804 -0.58426267
0.18993275 -0.20087627 -0.59831774
0.16363315 -0.17447503 -0.63243777
0.15879616 -0.13947295 -0.6426208
0.15898785 -0.1244315 -0.66755044
0.15556958 -0.16655032 -0.64941335
0.19818568 -0.1342501 -0.57415801
0.16677877 -0.1967538 -0.62581545
0.18168342 -0.12720455 -0.59443808
0.1661962 -0.13729405 -0.62704211
0.15235543 -0.13743703 -0.65617996
0.14720429 -0.13548356 -0.66702425
0.15179412 -0.20087625 -0.66369045
0.16585979 -0.15334107 -0.62775034
0.16600354 -0.12452512 -0.62744766
0.15009403 -0.16314366 -0.66094053
0.15763813 -0.1249043 -0.64505869
0.16977811 -0.12443148 -0.62175882
0.18701366 -0.14828886 -0.58321679
0.16851169 -0.15044004 -0.62216753
0.17898729 -0.13417977 -0.60011399
0.17275596 -0.12443149 -0.62408209
0.1471545 -0.19967028 -0.66712862
0.16442543 -0.20087627 -0.64686525
0.15773307 -0.1244315 -0.67244434
0.18509278 -0.17002966 -0.58726066
0.14914529 -0.17355876 -0.66851825
0.17632243 -0.20087627 -0.63652557
0.17571007 -0.20087627 -0.61249501
0.15519002 -0.16923393 -0.65021241
0.19586404 -0.19983742 -0.57303894
0.18746755 -0.13314882 -0.5822612
0.15445071 -0.15268888 -0.65176886
0.20326868 -0.12443148 -0.58006501
0.17112419 -0.14147305 -0.61666763
0.19061749 -0.20087627 -0.60586786
0.15646809 -0.14868869 -0.6720019
0.16890894 -0.14771318 -0.62133127
0.14879993 -0.17808059 -0.66366476
0.1643668 -0.14303425 -0.63089347
0.17365435 -0.14150867 -0.61134112
0.1851996 -0.19216168 -0.58703578
0.14934863 -0.18488315 -0.66250962
0.16092618 -0.16332147 -0.63813663
0.16876692 -0.12443148 -0.62888449
0.18181971 -0.19169351 -0.5941512
0.20072824 -0.13559183 -0.57536536
0.1944274 -0.20087627 -0.59777522
0.18178634 -0.17039056 -0.59422141
0.19072884 -0.13195972 -0.57539546
0.14747778 -0.183406 -0.66772383
0.1762262 -0.1363702 -0.60592675
0.18987152 -0.12443148 -0.59555387
0.18815319 -0.12443148 -0.58574128
0.17688264 -0.19832081 -0.6045447
0.16612172 -0.12443149 -0.64917737
0.18720734 -0.16570263 -0.58280903
0.16435944 -0.19252369 -0.63090873
0.15433711 -0.17174491 -0.65200788
0.17388615 -0.18266666 -0.61085302
0.16421886 -0.12443148 -0.63486248
0.14875856 -0.16220824 -0.6637519
0.19320627 -0.17222796 -0.57178366
0.17893104 -0.18425919 -0.60023248
0.17622371 -0.18185747 -0.605932
0.14958698 -0.19830672 -0.66872215
0.1602793 -0.13839653 -0.63949847
0.1671508 -0.1765101 -0.62503242
0.1573818 -0.18199959 -0.64559811
0.19209564 -0.12443148 -0.59392178
0.16473746 -0.18555325 -0.63011295
0.15122013 -0.15074301 -0.65856993
0.15594749 -0.17108543 -0.67174971
0.17610829 -0.16071835 -0.60617501
0.19252764 -0.20087628 -0.58092451
0.16272163 -0.15484732 -0.63435686
0.14940548 -0.19110674 -0.66238993
0.19717921 -0.19238372 -0.57366586
0.167137 -0.15196785 -0.62506157
0.15564024 -0.17233165 -0.64926457
0.18997143 -0.16184795 -0.57699001
0.20155604 -0.18608743 -0.57574683
0.16921206 -0.12443149 -0.63473606
0.15904534 -0.19403815 -0.64209598
0.15551144 -0.18005283 -0.64953566
0.1534754 -0.18205103 -0.65382189
0.17009717 -0.13173011 -0.61882973
0.19027062 -0.13490243 -0.57636011
0.1592291 -0.18922603 -0.64170915
0.1986115 -0.19497167 -0.57434553
0.16201845 -0.17411681 -0.63583708
0.15312055 -0.13911548 -0.67041481
0.17540751 -0.1244315 -0.63860267
0.19622554 -0.13010812 -0.57322824
0.19626012 -0.15622288 -0.57323867
0.18337753 -0.19801939 -0.59087157
0.17002377 -0.13478683 -0.61898422
0.17654835 -0.18812135 -0.60524851
0.18630151 -0.17523624 -0.58471602
0.15282671 -0.20087625 -0.65958887
0.15220276 -0.14070004 -0.65650135
0.15453951 -0.12786633 -0.67109239
0.17800945 -0.14962626 -0.60217261
0.16418852 -0.1700711 -0.63126862
0.15230642 -0.17704083 -0.6562829
0.18587421 -0.14183334 -0.58561558
0.18974802 -0.12443148 -0.57834631
0.16104114 -0.17519017 -0.63789451
0.16040187 -0.12443149 -0.65757573
0.17542778 -0.13795602 -0.6076076
0.14925398 -0.19353503 -0.66270894
0.17337014 -0.19185451 -0.61193931
0.17238021 -0.12443148 -0.64355075
0.16725007 -0.14766251 -0.62482351
0.14796659 -0.19396439 -0.66541904
0.18663007 -0.20087627 -0.60989183
0.19097468 -0.20087627 -0.6027059
0.18409972 -0.20087625 -0.59210199
0.15484574 -0.20087627 -0.66779578
0.18378602 -0.15331517 -0.59001166
0.19327201 -0.20087627 -0.57413518
0.17209959 -0.13424623 -0.61461413
0.17808983 -0.20087625 -0.62829816
0.15579741 -0.12689784 -0.64893383
0.16985995 -0.15692943 -0.61932915
0.16029295 -0.14126934 -0.6394698
0.16551593 -0.19133253 -0.628474
0.19244379 -0.12443148 -0.58217657
0.1804907 -0.1488436 -0.59694904
0.18572427 -0.20087625 -0.60644215
0.15197992 -0.12443149 -0.65916139
0.20393546 -0.17238334 -0.57688117
0.15688078 -0.1978952 -0.64665282
0.15775341 -0.20023139 -0.6448158
0.18781951 -0.14455631 -0.58152026
0.15573969 -0.15778732 -0.67165375
0.15522243 -0.14649121 -0.65014422
0.17640997 -0.20087627 -0.62291491
0.16012901 -0.16124362 -0.63981485
0.1688564 -0.20087627 -0.62934774
0.18251385 -0.12443148 -0.61540413
0.17965592 -0.12962949 -0.59870642
0.18837091 -0.13680737 -0.58035946
0.15469685 -0.12443149 -0.65483081
0.15651223 -0.1355544 -0.67202699
0.15081899 -0.19339184 -0.66930884
0.16049501 -0.1915247 -0.63904411
0.19213827 -0.12443148 -0.57574576
0.18919376 -0.1981649 -0.57862729
0.15281402 -0.19811654 -0.67025506
0.15826848 -0.20087625 -0.6697343
0.17289001 -0.1270259 -0.61295009
0.17930563 -0.18758863 -0.59944391
0.17550263 -0.13245447 -0.60745001
0.19894065 -0.14176127 -0.57451451
0.18701923 -0.20087625 -0.58842033
0.16294205 -0.14935434 -0.63389277
0.1881218 -0.15859696 -0.58088392
0.15204071 -0.17405379 -0.65684235
0.17188096 -0.12443149 -0.61975074
0.17733876 -0.19531573 -0.60358453
0.16075525 -0.13159734 -0.63849652
0.18320809 -0.13111819 -0.59122831
0.14884415 -0.19501014 -0.66837001
0.18034485 -0.16837621 -0.59725612
0.19942878 -0.14440805 -0.57474595
0.1626467 -0.18706459 -0.63451445
0.18168208 -0.20087625 -0.61600453
0.15514089 -0.18272838 -0.65031576
0.19452317 -0.17985244 -0.57240736
0.14782174 -0.16427903 -0.66789204
0.1806871 -0.13637637 -0.59653562
0.1850194 -0.143479 -0.5874151
0.19043186 -0.18730232 -0.57602078
0.15076454 -0.14769642 -0.66929376
0.17883067 -0.14703609 -0.60044384
0.16676971 -0.16872154 -0.6258347
0.20166382 -0.17391285 -0.57580149
0.16661772 -0.12443149 -0.6523335
0.19745694 -0.13978285 -0.57381094
0.17702371 -0.19092441 -0.60424781
0.18528076 -0.16756076 -0.58686495
0.1730803 -0.16482852 -0.6125496
0.15744022 -0.18762586 -0.64547515
0.17208369 -0.17853898 -0.61464763
0.17218399 -0.19021742 -0.61443639
0.16403395 -0.1244315 -0.66173989
0.18509701 -0.13658509 -0.58725172
0.16785944 -0.20087627 -0.62470835
0.16615038 -0.20087625 -0.62715113
0.20159189 -0.19827238 -0.57576025
0.15661506 -0.2008048 -0.64721215
0.1929184 -0.12443148 -0.57862687
0.15730578 -0.19252163 -0.67239034
0.17562959 -0.12443149 -0.62285244
0.18953364 -0.18349414 -0.57791173
0.1745483 -0.17193475 -0.60945916
0.17860791 -0.20087627 -0.61305809
0.1823685 -0.13325085 -0.59299582
0.18652649 -0.12443148 -0.58815348
0.18897264 -0.12443149 -0.60727143
0.15816012 -0.13807581 -0.672809
0.18120877 -0.12443148 -0.6013658
0.19350824 -0.20087627 -0.5783658
0.18995725 -0.13754386 -0.57701981
0.14887051 -0.18706483 -0.66351616
0.15536831 -0.1512982 -0.64983714
0.15394564 -0.16625063 -0.65283203
0.18538107 -0.17276888 -0.58665383
0.19103482 -0.19649787 -0.57475144
0.16358906 -0.17812458 -0.63253057
0.17895712 -0.17897663 -0.60017759
0.20107608 -0.19580159 -0.57551599
0.16937767 -0.20087624 -0.64788532
0.15776505 -0.13703981 -0.64479154
0.16152564 -0.14516762 -0.63687474
0.1873524 -0.19021499 -0.58250374
0.15880887 -0.1286491 -0.64259404
0.14794742 -0.14850166 -0.66795576
0.15354015 -0.15501399 -0.67060995
0.16216817 -0.12830679 -0.63552201
0.19005582 -0.14476693 -0.57681239
0.15452918 -0.15889293 -0.65160364
0.1563455 -0.20087627 -0.66571915
0.15660726 -0.14599919 -0.67206895
0.16181791 -0.15145367 -0.63625938
0.16500282 -0.1244315 -0.64361823
0.16155495 -0.13827536 -0.63681293
0.17290872 -0.17646715 -0.61291075
0.17002031 -0.20087627 -0.63597733
0.14982086 -0.14115828 -0.66151571
0.15267627 -0.17271885 -0.67019522
0.15392005 -0.15623894 -0.65288591
0.17893179 -0.12725526 -0.60023087
0.16895093 -0.20087625 -0.65268034
0.15410702 -0.13159785 -0.65249252
0.15951212 -0.20087625 -0.6719805
0.1789768 -0.18158428 -0.60013616
0.15962586 -0.20087627 -0.66626608
0.19066113 -0.12443148 -0.60134906
0.17446758 -0.18597513 -0.60962903
0.19869232 -0.18227482 -0.57438755
0.15637407 -0.13648526 -0.64771986
0.16042501 -0.14480098 -0.63919175
0.15285124 -0.18728654 -0.67027593
0.16856605 -0.13500512 -0.62205315
0.17002574 -0.19535114 -0.61897993
0.16070327 -0.20087627 -0.6594373
0.154505 -0.19031994 -0.65165436
0.16491437 -0.16547209 -0.6297406
0.14827394 -0.16726241 -0.66477221
0.15525711 -0.15699983 -0.65007126
0.20472986 -0.16347502 -0.57725966
0.15019806 -0.15865096 -0.66072154
0.1859861 -0.20087627 -0.61403704
0.19782262 -0.1982986 -0.57396984
0.19414517 -0.19155668 -0.57222474
0.17660543 -0.12602988 -0.60512835
0.18012656 -0.15517613 -0.59771568
0.16703418 -0.20087627 -0.63914275
0.18384443 -0.12443148 -0.59661448
0.17861378 -0.19604242 -0.60090029
0.18014696 -0.14439104 -0.59767264
0.20456764 -0.15437007 -0.57718325
0.19216032 -0.18539552 -0.57238197
0.20140274 -0.13883379 -0.57568473
0.1567291 -0.15963337 -0.6469723
0.15953657 -0.12443149 -0.64919943
0.15749373 -0.16981572 -0.64536256
0.19007674 -0.15935452 -0.57676828
0.15121861 -0.1358241 -0.65857327
0.1697671 -0.12443149 -0.63717866
0.18989649 -0.12688479 -0.57714778
0.17033491 -0.16512583 -0.61832923
0.14847468 -0.19720018 -0.66434938
0.15998119 -0.18044926 -0.64012587
0.1931057 -0.2004299 -0.57172859
0.20185824 -0.20087627 -0.58098233
0.19357106 -0.12802073 -0.57196826
0.15019378 -0.1861061 -0.6690129
0.1510939 -0.1244315 -0.66729009
0.15577438 -0.19202948 -0.64898205
0.19570944 -0.17003213 -0.57297349
0.15880825 -0.13582328 -0.64259541
0.17055033 -0.12443149 -0.64187759
0.18462683 -0.14975011 -0.58824152
0.1789654 -0.15921646 -0.60016012
0.18928228 -0.16957355 -0.57844085
0.14817755 -0.14326145 -0.66497523
0.15043937 -0.18623178 -0.66021335
0.15275164 -0.15707895 -0.65534574
0.18441747 -0.19048244 -0.58868235
0.1971992 -0.20087627 -0.59226048
0.18680291 -0.20087627 -0.59098232
0.17105177 -0.181595 -0.61681998
0.16471982 -0.12443149 -0.64681941
0.16168332 -0.17931323 -0.63654256
0.16916268 -0.19152825 -0.62079692
0.15891954 -0.14425749 -0.64236104
0.18937054 -0.19251257 -0.57825506
0.16985431 -0.12443148 -0.62662119
0.18188761 -0.19666551 -0.59400821
0.17424455 -0.12443149 -0.62606794
0.19075775 -0.166969 -0.57533467
0.16646117 -0.1423123 -0.62648433
0.18843785 -0.17468053 -0.58021855
0.16367647 -0.16345482 -0.63234663
0.16550538 -0.12443149 -0.63714641
0.15594232 -0.13406108 -0.64862871
0.1607395 -0.12443151 -0.66029084
0.17239237 -0.19847578 -0.6139977
0.19464286 -0.18388309 -0.57246315
0.19553015 -0.12443148 -0.58447254
0.15340963 -0.16000131 -0.65396047
0.14894699 -0.15855601 -0.66335529
0.17396668 -0.14766648 -0.61068356
0.1615034 -0.1244315 -0.66828799
0.20424308 -0.12679139 -0.57703769
0.18577392 -0.12443148 -0.61148435
0.19027075 -0.20087627 -0.59462333
0.16134408 -0.20087625 -0.63765496
0.1789155 -0.13172361 -0.60026515
0.14957379 -0.14545935 -0.66872883
0.20357031 -0.20087627 -0.5790031
0.18646279 -0.15364259 -0.58437651
0.20404845 -0.18871215 -0.57693005
0.1902777 -0.14852075 -0.57634521
0.16267416 -0.16264716 -0.63445675
0.15501803 -0.19399214 -0.65057427
0.19526671 -0.12443148 -0.58067036
0.17678583 -0.13224193 -0.60474861
0.16169877 -0.15716022 -0.63651013
0.1853535 -0.12443149 -0.594163
0.16987324 -0.17407659 -0.61930108
0.1646148 -0.13405111 -0.63037127
0.1841094 -0.16466893 -0.58933085
0.19575909 -0.12443148 -0.58921951
0.18110654 -0.20048356 -0.59565252
0.152536 -0.18377033 -0.65579957
0.1569058 -0.16518945 -0.64660037
0.18842621 -0.18569387 -0.58024311
0.17991897 -0.18535802 -0.5981527
0.17966074 -0.1770131 -0.59869635
0.20077154 -0.12992169 -0.57538772
0.15609185 -0.13038422 -0.648314
0.17426935 -0.1260708 -0.61004633
0.15018314 -0.1746496 -0.66075277
0.18908459 -0.20087627 -0.60080755
0.16419302 -0.12443151 -0.65703267
0.15861827 -0.14973849 -0.64299536
0.20167771 -0.16183262 -0.57581127
0.16343914 -0.20087627 -0.63348776
0.1720134 -0.14721461 -0.61479563
0.15232477 -0.20087627 -0.65701973
0.16625682 -0.18523623 -0.62691438
0.14981061 -0.17682514 -0.66883332
0.17429569 -0.12443149 -0.63145965
0.17633563 -0.13978985 -0.60569638
0.17235036 -0.18514024 -0.61408615
0.19214982 -0.14518189 -0.57240397
0.1818874 -0.14448366 -0.59400868
0.15578064 -0.19860764 -0.67166412
0.17084409 -0.20087627 -0.64295381
0.15756413 -0.14019403 -0.64521444
0.1556675 -0.13156405 -0.67162704
0.15510504 -0.12893397 -0.65039146
0.15242893 -0.19547613 -0.67007291
0.19190732 -0.18135998 -0.5729146
0.17893095 -0.20087627 -0.61640126
0.15135822 -0.12810868 -0.66958106
0.18733001 -0.20087627 -0.59837961
0.15238847 -0.18722999 -0.65611011
0.16333514 -0.18426061 -0.63306504
0.16555932 -0.12443149 -0.63264143
0.18437923 -0.14717059 -0.58876282
0.18272892 -0.17808798 -0.59223717
0.18454534 -0.18439724 -0.58841318
0.15175 -0.19375066 -0.65745419
0.18917827 -0.18068109 -0.57865983
0.18544015 -0.15500832 -0.58652937
0.16045955 -0.17732853 -0.63911885
0.16696918 -0.19186261 -0.62541461
0.20463014 -0.17865498 -0.57720929
0.15620214 -0.14314753 -0.64808184
0.15711711 -0.1244315 -0.66569233
0.16275686 -0.12443151 -0.66486055
0.18142155 -0.19400921 -0.59498942
0.20191647 -0.14615913 -0.57592648
0.1788764 -0.20087627 -0.60825276
0.1833581 -0.18570265 -0.59091258
0.16745639 -0.18604229 -0.62438905
0.18659601 -0.19282535 -0.58409607
0.19562848 -0.20087627 -0.58283544
0.15480416 -0.19563341 -0.67120111
0.16432039 -0.18979201 -0.63099092
0.15267004 -0.19576216 -0.65551728
0.18624413 -0.1697538 -0.58483684
0.19245276 -0.12443148 -0.59730548
0.14909203 -0.1538766 -0.66849792
0.16945368 -0.14540285 -0.62018442
0.18408677 -0.17135853 -0.58937854
0.16525456 -0.16800167 -0.62902439
0.1873 -0.18448627 -0.582614
0.18766385 -0.12443148 -0.60956776
0.15839685 -0.1244315 -0.65139467
0.14933604 -0.17025565 -0.66860962
0.18211639 -0.130284 -0.5935266
0.1805446 -0.14147228 -0.59683555
0.15129983 -0.17130442 -0.65840203
0.17434154 -0.20087627 -0.61895174
0.19565551 -0.19510478 -0.57294136
0.20472133 -0.13069972 -0.57726365
0.16246842 -0.13409598 -0.6348899
0.17093606 -0.18858758 -0.61706352
0.17508899 -0.14138639 -0.60832083
0.16627273 -0.15033844 -0.626881
0.16359246 -0.13336793 -0.63252354
0.17441532 -0.160143 -0.60973907
0.14873917 -0.14712116 -0.66379291
0.16053282 -0.19422136 -0.63896453
0.14723906 -0.17811488 -0.66695082
0.15309209 -0.15012723 -0.67039841
0.18615742 -0.13199608 -0.58501929
0.18346946 -0.13769644 -0.59067804
0.19542652 -0.16231945 -0.57284105
0.17889252 -0.12443149 -0.62169415
0.17245184 -0.15468378 -0.61387265
0.180218 -0.13386977 -0.59752309
0.15751329 -0.13109556 -0.64532155
0.16622192 -0.12740231 -0.62698793
0.17283666 -0.13599646 -0.6130625
0.17624085 -0.14270182 -0.60589594
0.15294567 -0.12443149 -0.65683019
0.1677874 -0.16523843 -0.62369227
0.19134766 -0.13530529 -0.57409269
0.16420731 -0.15726462 -0.63122916
0.15271679 -0.12658688 -0.65541929
0.17114313 -0.20087625 -0.62601471
0.16423348 -0.19946785 -0.63117385
0.17858537 -0.13708082 -0.6009602
0.1627665 -0.19595447 -0.63426208
0.17415977 -0.17837068 -0.610277
0.16527103 -0.17656069 -0.6289897
0.18538767 -0.12443149 -0.61706203
0.17425519 -0.12443149 -0.616072
0.16304699 -0.20087625 -0.65108418
0.14977559 -0.14459938 -0.66161102
0.18371598 -0.18100724 -0.59015912
0.17996974 -0.17410362 -0.59804577
0.19215906 -0.20087627 -0.60012895
0.16978095 -0.16745764 -0.61949539
0.19290699 -0.19778667 -0.57163489
0.1691255 -0.18504027 -0.62087524
0.16488549 -0.12443149 -0.64046633
0.14795618 -0.17285199 -0.66544104
0.1930605 -0.12443148 -0.58587229
0.171617 -0.13122427 -0.61563015
0.17117938 -0.17073622 -0.61655146
0.16571181 -0.19388112 -0.62806171
0.18374303 -0.17500392 -0.5901022
0.18346129 -0.20087627 -0.62052709
0.17058453 -0.13881454 -0.61780369
0.17758934 -0.13614066 -0.60305703
0.17056599 -0.14457139 -0.61784267
0.15395874 -0.1244315 -0.66824013
0.18571913 -0.14629649 -0.58594203
0.17614703 -0.12443149 -0.62029922
0.16763061 -0.13802826 -0.62402236
0.17228523 -0.12443149 -0.63806176
0.1574313 -0.17934161 -0.64549392
0.17680565 -0.12443148 -0.61248338
0.16900726 -0.19765833 -0.62112403
0.15924403 -0.20087625 -0.65662438
0.17158774 -0.20087627 -0.63382775
0.16700436 -0.20087625 -0.65530908
0.18358634 -0.12558447 -0.59043199
0.18087374 -0.16261005 -0.59614271
0.18074843 -0.19732717 -0.5964064
0.15655686 -0.1772815 -0.64733481
0.18446411 -0.18783405 -0.58858418
0.19937441 -0.13772053 -0.57472157
0.15346657 -0.20007953 -0.65384042
0.16612022 -0.20087624 -0.63184518
0.20236757 -0.1914528 -0.57613075
0.14992535 -0.15569641 -0.66129577
0.18969807 -0.20087627 -0.58754247
0.16260634 -0.1930718 -0.63459933
0.17995062 -0.19556308 -0.598086
0.19871776 -0.12443148 -0.58222514
0.17450495 -0.16540211 -0.60955042
0.18714772 -0.15982768 -0.58293456
0.19673637 -0.14480481 -0.57346785
0.176635 -0.12443148 -0.62906069
0.15424058 -0.12665138 -0.65221137
0.17731351 -0.15156049 -0.60363775
0.14997479 -0.18934849 -0.66890812
0.19196358 -0.15032685 -0.57279611
0.18159983 -0.12443148 -0.60839701
0.19037494 -0.15644816 -0.57614052
0.19119784 -0.17322023 -0.57440817
0.17883272 -0.17005537 -0.60043943
0.15789299 -0.15843096 -0.64452213
0.1702825 -0.17652871 -0.6184395
0.1961903 -0.18987319 -0.57319689
0.1859735 -0.12910524 -0.58540654
0.1525754 -0.15874588 -0.67015088
0.15311623 -0.16798526 -0.65457821
0.19528101 -0.16702794 -0.57277071
0.15293911 -0.20087625 -0.66589558
0.18267162 -0.20087627 -0.60028756
0.18775205 -0.17225502 -0.58166236
0.19176653 -0.14235574 -0.57321095
0.1633442 -0.13602066 -0.63304621
0.1588942 -0.12443149 -0.65386289
0.16698927 -0.19431861 -0.62537229
0.18557514 -0.16408953 -0.58624524
0.20356071 -0.18104208 -0.57670057
0.1640854 -0.20087625 -0.65497661
0.15104783 -0.19113652 -0.65893239
0.16470946 -0.15293019 -0.63017201
0.17638311 -0.20087625 -0.61485225
0.18348213 -0.15065759 -0.59065145
0.17697093 -0.1729584 -0.60435903
0.19957469 -0.20087627 -0.58656865
0.1617724 -0.20087627 -0.64686203
0.15689406 -0.12732959 -0.64662516
0.16953704 -0.14129381 -0.62000895
0.17142363 -0.16238549 -0.61603725
0.16756746 -0.20087627 -0.63670027
0.18586932 -0.18457289 -0.58562595
0.1532447 -0.14296648 -0.65430778
0.15376304 -0.19320251 -0.67070735
0.15566775 -0.20087627 -0.64964509
0.18465258 -0.12773168 -0.58818728
0.17107576 -0.19656335 -0.61676943
0.15398932 -0.16233556 -0.65274012
0.18029831 -0.15817049 -0.59735405
0.16358712 -0.12610349 -0.6325348
0.1985644 -0.18801369 -0.57432526
0.14714171 -0.16712527 -0.6671558
0.1733087 -0.20087625 -0.61425799
0.17181338 -0.12443148 -0.61723614
0.148783 -0.15584899 -0.66370058
0.18914312 -0.16395542 -0.5787338
0.15092412 -0.14292093 -0.66937077
0.15785882 -0.19324301 -0.64459389
0.14758196 -0.12937656 -0.66622913
0.18006496 -0.17958175 -0.59784544
0.19503693 -0.20087627 -0.58840513
0.20277359 -0.13277449 -0.57633781
0.19070029 -0.16394277 -0.57545561
0.17955938 -0.199912 -0.59890962
0.1809383 -0.18733419 -0.59600675
0.16905874 -0.1650424 -0.62101585
0.18603472 -0.19060826 -0.58527774
0.1829792 -0.17143603 -0.59171027
0.15229455 -0.16080222 -0.65630794
0.17343213 -0.12443148 -0.61233324
0.16399378 -0.18730997 -0.63167852
0.15735206 -0.18979169 -0.67241311
0.15797737 -0.1516946 -0.64434457
0.16269512 -0.13897316 -0.63441265
0.16872501 -0.20087627 -0.64493406
0.15319085 -0.17236422 -0.65442103
0.15740992 -0.1479782 -0.6455391
0.20433094 -0.15107284 -0.57707179
0.15681453 -0.16213919 -0.64679253
0.16093077 -0.12443149 -0.65191382
0.17148775 -0.15157874 -0.61590225
0.14702256 -0.13813621 -0.66751927
0.18294899 -0.1624483 -0.59177381
0.16595359 -0.15736976 -0.62755287
0.17774934 -0.1425854 -0.6027202
0.17976332 -0.13866247 -0.59848034
0.20142724 -0.18296762 -0.57568657
0.15431826 -0.17616677 -0.65204757
0.18920998 -0.15599586 -0.57859302
0.1982718 -0.12443148 -0.57954907
0.19404066 -0.15698126 -0.57218397
0.18510216 -0.19467381 -0.58724093
0.16647308 -0.17873302 -0.62645912
0.14904274 -0.16546428 -0.66315365
0.18134795 -0.15914518 -0.59514439
0.16785783 -0.12792361 -0.62354404
0.17012316 -0.15230685 -0.61877501
0.14899464 -0.13373311 -0.66845685
0.18590738 -0.12443148 -0.59092367
0.15331686 -0.17487262 -0.65415573
0.15450826 -0.16665402 -0.67106664
0.1885622 -0.17750773 -0.57995683
0.18539453 -0.19774657 -0.58662546
0.16829827 -0.17580321 -0.62261671
0.19265297 -0.17845865 -0.57151914
0.16899283 -0.12667215 -0.62115455
0.17888679 -0.1636381 -0.60032564
0.20236382 -0.12443148 -0.57634187
0.158177 -0.18389961 -0.6728068
0.17654152 -0.1844663 -0.60526294
0.15354486 -0.1873114 -0.65367568
0.1544686 -0.18568145 -0.65173101
0.15648539 -0.18712512 -0.67200226
0.15018819 -0.13925502 -0.6690222
0.14711542 -0.18681793 -0.66755092
0.19399375 -0.17494628 -0.57215703
0.18847042 -0.18830201 -0.58015001
0.16369748 -0.20087625 -0.6364941
0.17949079 -0.20087625 -0.63035339
0.16788577 -0.1311527 -0.62348521
0.17625695 -0.12924811 -0.60586202
0.15388897 -0.14520709 -0.65295154
0.16894454 -0.13042554 -0.62125623
0.16874713 -0.1571402 -0.62167192
0.16720687 -0.15864991 -0.62491447
0.18273893 -0.12819473 -0.59221601
0.15910348 -0.18642455 -0.67324615
0.20375209 -0.17509532 -0.57679325
0.16521361 -0.17918852 -0.62911057
0.15618241 -0.19452454 -0.64812303
0.17690414 -0.16958244 -0.60449958
0.18315484 -0.12443148 -0.6120255
0.16437176 -0.13787305 -0.63088298
0.1740333 -0.16313165 -0.61054337
0.19089435 -0.18393378 -0.57504714
0.19569333 -0.17681578 -0.57296407
0.19810379 -0.15054114 -0.57411611
0.19231045 -0.20087627 -0.58727944
0.17569682 -0.1725931 -0.60704124
0.17782135 -0.18570058 -0.60256863
0.1550898 -0.20087625 -0.66263479
0.15989465 -0.12918034 -0.64030826
0.16711958 -0.12443149 -0.65651113
0.15301768 -0.15462953 -0.65478575
0.19068204 -0.12443148 -0.58951324
0.15980022 -0.19673845 -0.6405068
0.19239445 -0.12443148 -0.57274288
0.15123066 -0.13366948 -0.66951877
0.16633943 -0.13480073 -0.62674057
0.17189443 -0.12443149 -0.63287377
0.1827803 -0.1553036 -0.59212893
0.15497115 -0.13693126 -0.65067333
0.17165463 -0.12443149 -0.62866694
0.15687804 -0.16779697 -0.64665878
0.18284118 -0.16525675 -0.59200078
0.18844599 -0.20087625 -0.60381925
0.14963223 -0.16073085 -0.66191274
0.17970292 -0.20087625 -0.61884463
0.18379511 -0.12443148 -0.62128359
0.18129684 -0.13872245 -0.59525192
0.1610416 -0.12443149 -0.64547402
0.15581869 -0.13916622 -0.64888912
0.17586717 -0.19436051 -0.60668254
0.16825548 -0.15957212 -0.62270689
0.19113483 -0.16066736 -0.57454085
0.15815066 -0.19779666 -0.64397943
0.18132359 -0.13425146 -0.59519559
0.17981969 -0.16139141 -0.59836173
0.16350572 -0.14157641 -0.63270617
0.19058926 -0.20015787 -0.57568938
0.16463658 -0.12889953 -0.63032544
0.15629052 -0.14602478 -0.64789569
0.18363011 -0.14399931 -0.5903399
0.17407915 -0.12892255 -0.61044669
0.19748031 -0.12443148 -0.59124213
0.20150387 -0.14328671 -0.57573134
0.15257934 -0.14491154 -0.65570855
0.19197068 -0.20087627 -0.59242535
0.19178727 -0.19037713 -0.57316726
0.18393639 -0.1780853 -0.58969522
0.1760457 -0.2005938 -0.60630667
0.16820168 -0.12443149 -0.64083517
0.18493845 -0.13223 -0.58758551
0.1710466 -0.15577234 -0.61683095
0.15653336 -0.15089712 -0.64738446
0.16173598 -0.12488411 -0.63643181
0.16407052 -0.18042915 -0.63151699
0.18678607 -0.18162401 -0.58369595
0.1589891 -0.15554491 -0.67319733
0.18599623 -0.17881198 -0.58535874
0.16752246 -0.16276297 -0.62425005
0.18246911 -0.13621286 -0.59278399
0.15391664 -0.19391862 -0.65289295
0.1734831 -0.18501088 -0.61170149
0.15969792 -0.15345183 -0.64072239
0.19617113 -0.15357155 -0.57319707
0.15912139 -0.12783435 -0.67326885
0.1550744 -0.12445414 -0.65045595
0.16496265 -0.17350207 -0.62963891
0.20027892 -0.19035727 -0.57513893
0.16725132 -0.17300874 -0.62482083
0.18606696 -0.16146857 -0.58520979
0.16531698 -0.13893822 -0.62889308
0.18971649 -0.1892602 -0.57752675
0.15375447 -0.1970416 -0.65323436
0.1507193 -0.1398751 -0.65962434
0.15669632 -0.18409058 -0.6470412
0.18094784 -0.15172359 -0.5959866
0.16877905 -0.17190984 -0.62160462
0.15255928 -0.17556453 -0.67013896
0.16066584 -0.1513007 -0.63868469
0.17994162 -0.12443149 -0.62805808
0.18936014 -0.20087627 -0.59016609
0.16983902 -0.14914119 -0.6193732
0.19917749 -0.1319612 -0.5746299
0.16404854 -0.16056228 -0.63156337
0.17423773 -0.14502624 -0.61011291
0.18945402 -0.12443148 -0.59269053
0.17332657 -0.20087625 -0.62329715
0.17374666 -0.20087627 -0.63047296
0.1767765 -0.12443148 -0.61720556
0.16683611 -0.18320043 -0.62569487
0.15724736 -0.19077861 -0.64588106
0.17896879 -0.16742469 -0.60015309
0.1741031 -0.17440526 -0.61039639
0.1799486 -0.16518576 -0.59809035
0.17180488 -0.15880014 -0.61523461
0.19681561 -0.18038255 -0.5734964
0.15897158 -0.14048477 -0.67319375
0.20291483 -0.12877934 -0.57640612
0.18570721 -0.18174703 -0.58596718
0.16189149 -0.16622296 -0.6361044
0.1802666 -0.20087627 -0.6267907
0.15153003 -0.1334186 -0.65791768
0.15581922 -0.1819175 -0.67168742
0.17713535 -0.20087627 -0.61917555
0.15089314 -0.16647692 -0.65925825
0.17346682 -0.20087627 -0.64313501
0.15282384 -0.1816752 -0.67026353
0.18638283 -0.13814981 -0.58454484
0.15331207 -0.1244315 -0.66505897
0.19651136 -0.13677479 -0.57336253
0.18177181 -0.175955 -0.59425205
0.18237057 -0.1515865 -0.59299147
0.14825809 -0.17030637 -0.66480553
0.17151344 -0.17322135 -0.61584818
0.1643135 -0.18293554 -0.63100547
0.18966296 -0.16682288 -0.57763946
0.1570864 -0.16555959 -0.67229158
0.16533621 -0.1628384 -0.62885255
0.19187111 -0.17600685 -0.57299078
0.14925861 -0.17988726 -0.66857046
0.17643736 -0.12443149 -0.63360739
0.15412101 -0.14828351 -0.65246302
0.17870823 -0.17526668 -0.60070157
0.17799236 -0.15789521 -0.60220861
0.15119588 -0.17571685 -0.65862083
0.17449658 -0.19204101 -0.60956794
0.15786073 -0.16296421 -0.64459002
0.15037584 -0.16703922 -0.66910428
0.17993201 -0.19014564 -0.59812516
0.14767493 -0.18928249 -0.66781598
0.17786737 -0.13292551 -0.60247171
0.16512448 -0.13135262 -0.62929833
0.14938214 -0.15975034 -0.66863418
0.17552994 -0.18738349 -0.60739249
0.16808689 -0.19273749 -0.62306166
0.16127218 -0.18645325 -0.63740802
0.18944903 -0.13249901 -0.57808977
0.18737459 -0.19811171 -0.58245695
0.1547676 -0.1431257 -0.65110183
0.16787732 -0.19646953 -0.62350273
0.15222405 -0.17892823 -0.66997886
0.1570361 -0.20087624 -0.65540212
0.18930325 -0.1502551 -0.57839674
0.19763654 -0.16670704 -0.57388991
0.17263579 -0.14433962 -0.61348534
0.14773881 -0.14026955 -0.66589892
0.17764413 -0.17940791 -0.60294175
0.16578773 -0.20087625 -0.65068364
0.1919557 -0.19288489 -0.5728128
0.151504 -0.12564406 -0.66965109
0.14906175 -0.13683811 -0.66848791
0.17711079 -0.16358435 -0.60406446
0.20371634 -0.13529921 -0.57678485
0.16568646 -0.1244315 -0.65964276
0.1884702 -0.16597569 -0.58015049
0.18816026 -0.12443149 -0.59962082
0.17992693 -0.12571016 -0.59813589
0.15680763 -0.12748198 -0.67216992
0.18094534 -0.1777887 -0.59599197
0.17545843 -0.12727955 -0.60754299
0.16652173 -0.20087625 -0.64814323
0.15879977 -0.14808342 -0.67310977
0.16264926 -0.1454995 -0.63450921
0.18110666 -0.13169807 -0.59565234
0.18850182 -0.20087627 -0.59281015
0.16950127 -0.20053029 -0.62008405
0.17496893 -0.20087627 -0.6270088
0.18619013 -0.12443149 -0.59814358
0.18271294 -0.14023712 -0.59227073
0.19542985 -0.14161293 -0.57284796
0.18385786 -0.20087625 -0.61722845
0.19258496 -0.16826555 -0.57148939
0.18032135 -0.20087625 -0.62408149
0.18217531 -0.1997574 -0.5934025
0.15139692 -0.142951 -0.65819782
0.20437045 -0.1989374 -0.57707989
0.18256423 -0.12443148 -0.60406184
0.18732417 -0.20087625 -0.58388251
0.14852634 -0.13223973 -0.66424102
0.17776361 -0.18265308 -0.60269022
0.15580614 -0.14114961 -0.67168987
0.17178683 -0.16508187 -0.61527264
0.17840077 -0.12443148 -0.62422562
0.15853861 -0.191384 -0.64316273
0.18427995 -0.12443148 -0.60169071
0.19510427 -0.12443148 -0.57650137
0.15708223 -0.12443149 -0.66954303
0.16888542 -0.19490719 -0.62138057
0.15982598 -0.16622736 -0.64045274
0.17025787 -0.19821811 -0.61849123
0.17773964 -0.12745407 -0.60274059
0.15534832 -0.17754655 -0.64987904
0.15416765 -0.13422827 -0.65236485
0.1941857 -0.13231064 -0.57225919
0.16403374 -0.20087625 -0.63920641
0.1829658 -0.18295407 -0.59173852
0.20074812 -0.19323009 -0.57536095
0.17503598 -0.17632154 -0.60843241
0.20069435 -0.12443148 -0.57989138
0.19387363 -0.15320948 -0.57210559
0.18270952 -0.20087627 -0.60557771
0.1482179 -0.19068529 -0.66489005
0.17839476 -0.12936151 -0.60136139
0.20115925 -0.12443148 -0.5826816
0.19747871 -0.16328782 -0.57381582
0.17799661 -0.16149433 -0.60219973
0.19438019 -0.13795662 -0.57235014
0.1483559 -0.13541874 -0.66459984
0.15816137 -0.14619982 -0.6439572
0.1985682 -0.12443148 -0.58840728
0.19348638 -0.12443148 -0.59188533
0.18923256 -0.17232651 -0.57854551
0.19548261 -0.20087627 -0.57650089
0.17182836 -0.20087627 -0.62887853
0.18973984 -0.17661706 -0.57747763
0.16483872 -0.19543433 -0.62989974
0.15754476 -0.19575417 -0.64525497
0.15982752 -0.15593408 -0.64044952
0.17378011 -0.17024046 -0.61107635
0.16524546 -0.15538664 -0.62904364
0.15696558 -0.17810242 -0.67223305
0.15638095 -0.17046204 -0.6477052
0.16139612 -0.12443149 -0.66273504
0.15497626 -0.14403868 -0.67129481
0.18690494 -0.16305123 -0.58344573
0.15112455 -0.1993119 -0.65877086
0.15632337 -0.18167858 -0.64782631
0.16285229 -0.1314559 -0.63408178
0.14716186 -0.19206284 -0.66711318
0.18426299 -0.13024271 -0.58900756
0.15604095 -0.12443149 -0.65276784
0.1685362 -0.12443149 -0.64760977
0.1866212 -0.17234358 -0.58404297
0.18471587 -0.1568369 -0.58805412
0.18847416 -0.1342155 -0.58014208
0.1915327 -0.17843913 -0.57370323
0.16790363 -0.20087627 -0.64193916
0.17821458 -0.20087625 -0.63319635
0.16839035 -0.20087625 -0.65026408
0.19406976 -0.14362434 -0.57220119
0.1681072 -0.18400575 -0.62301892
