# .PCD v0.7 - Point Cloud Data file format
VERSION 0.7
FIELDS x y z rgb
SIZE 4 4 4 4
TYPE F F F F
COUNT 1 1 1 1
WIDTH 938
HEIGHT 1
VIEWPOINT 0 0 0 1 0 0 0
POINTS 938
DATA ascii
0.0035438279 0.15145195 0.11580399 2.3509886e-38
0.033309188 0.045451462 -0.10141197 2.3509886e-38
0.029366143 0.052460503 -0.059109733 2.3509886e-38
-0.0072727688 0.087547742 -0.085843846 2.3509886e-38
0.0056116162 0.078224942 -0.12726595 2.3509886e-38
-0.018895969 0.068666786 0.057458948 2.3509886e-38
-0.039417431 0.0084630381 -0.09340629 2.3509886e-38
0.01576636 0.030845955 0.12275133 2.3509886e-38
-0.13064373 0.059298053 0.081313193 2.3509886e-38
-0.027502261 -0.03029328 0.069105633 2.3509886e-38
0.012015875 0.0065471726 0.12184095 2.3509886e-38
0.031391464 -0.018369414 0.090016298 2.3509886e-38
-0.019374978 -0.010141825 0.034052882 2.3509886e-38
0.022958785 -0.062817939 0.093869142 2.3509886e-38
0.032414678 -0.0064696474 -0.1216784 2.3509886e-38
-0.024524849 -0.040117085 0.099717021 2.3509886e-38
0.0068156701 -0.068990983 0.060837463 2.3509886e-38
0.0091015436 0.10396203 0.079705112 2.3509886e-38
-0.019062301 0.011059464 0.029836679 2.3509886e-38
-0.0064623756 -0.041871775 -0.05480938 2.3509886e-38
0.011964979 0.075275213 0.12190628 2.3509886e-38
0.02445343 0.093405306 0.10233522 2.3509886e-38
-0.03367351 0.011221601 0.096551061 2.3509886e-38
-0.019072603 0.041261937 -0.046982579 2.3509886e-38
-0.074328572 0.078909114 0.064300835 2.3509886e-38
0.030529395 0.067447662 -0.095281817 2.3509886e-38
-0.0097456034 0.13037917 0.085211501 2.3509886e-38
-0.016956661 0.0060230703 -0.12726595 2.3509886e-38
0.018893952 -0.047985699 0.055232823 2.3509886e-38
-0.014982382 0.012341496 -0.013173967 2.3509886e-38
-0.11174234 0.051818624 0.052924186 2.3509886e-38
-0.022147696 0.083666407 0.070819192 2.3509886e-38
-0.12155641 0.046201013 0.065233022 2.3509886e-38
0.01334602 0.014103673 -0.033982225 2.3509886e-38
-0.0099213729 0.03277193 -0.042986583 2.3509886e-38
-0.022569187 -0.0078522954 0.053693399 2.3509886e-38
0.032353383 0.041440435 0.097250998 2.3509886e-38
-0.035642762 0.010599931 -0.12668136 2.3509886e-38
0.01339587 0.01692554 0.0081868637 2.3509886e-38
-0.014218459 -0.045728229 -0.072238639 2.3509886e-38
-0.092982218 0.072162092 0.053850107 2.3509886e-38
-0.14214347 0.057017323 0.06958206 2.3509886e-38
0.035370406 0.0081629027 -0.10019422 2.3509886e-38
-0.0031201374 0.062858149 0.12569247 2.3509886e-38
0.030859184 -0.0032049066 0.068660937 2.3509886e-38
-0.088282593 0.048870608 0.059473924 2.3509886e-38
-0.015855353 -0.019454585 0.036489084 2.3509886e-38
0.018432325 0.0066645779 0.030776637 2.3509886e-38
0.010782941 0.088356644 -0.093739696 2.3509886e-38
-0.033095002 0.045853369 0.057936318 2.3509886e-38
-0.027977362 -0.011780334 -0.12726595 2.3509886e-38
-0.0084889084 0.027393259 0.12587044 2.3509886e-38
-0.026071545 0.080392703 -0.11702 2.3509886e-38
-0.015288333 0.091544136 0.12013739 2.3509886e-38
-0.034619164 0.071823329 -0.10131764 2.3509886e-38
0.012337323 0.073890761 -0.12726595 2.3509886e-38
-0.016055483 -0.00077796704 0.11795828 2.3509886e-38
-0.0022034757 -0.036359653 -0.040158469 2.3509886e-38
0.0053010629 -0.040942743 -0.10574098 2.3509886e-38
0.011097906 -0.065901093 0.10065289 2.3509886e-38
0.00084321538 0.047557332 0.051232435 2.3509886e-38
-0.12530747 0.058285266 0.050980669 2.3509886e-38
-0.014383387 0.087215483 -0.090136871 2.3509886e-38
0.017525584 0.022564825 -0.041239347 2.3509886e-38
-0.0393419 0.035199538 0.070940346 2.3509886e-38
-0.048306197 0.082919769 0.065134659 2.3509886e-38
-0.023529278 -0.036082499 -0.12257253 2.3509886e-38
0.0048494232 -0.054377988 0.052133024 2.3509886e-38
-0.018785108 -0.016602244 0.046881199 2.3509886e-38
0.013283094 0.067537986 -0.057432447 2.3509886e-38
-0.019737625 -0.010179768 -0.015990008 2.3509886e-38
-0.0083617745 -0.038910586 0.11058265 2.3509886e-38
0.019759247 0.037174027 -0.046738688 2.3509886e-38
0.023988383 0.074122593 0.075190954 2.3509886e-38
0.027976217 0.033695307 -0.049747556 2.3509886e-38
0.030238064 0.063428491 -0.11526042 2.3509886e-38
-0.034700211 0.052560836 -0.11986935 2.3509886e-38
-0.031589225 -0.0019886987 -0.12726595 2.3509886e-38
0.021359196 0.084234856 -0.096076243 2.3509886e-38
-0.026698861 0.043410938 -0.12726595 2.3509886e-38
-0.14064303 0.050869312 0.075756356 2.3509886e-38
-0.0022484974 0.043287389 0.021897621 2.3509886e-38
-0.029361933 0.06855756 -0.12639964 2.3509886e-38
-0.030498246 0.061306372 -0.059624501 2.3509886e-38
0.025563492 0.046603754 -0.12726595 2.3509886e-38
-0.0013286523 -0.067817502 0.059186526 2.3509886e-38
0.0037060059 0.044290483 0.12495345 2.3509886e-38
-0.018392881 -0.05489422 0.060244069 2.3509886e-38
0.017553218 -0.033552356 -0.043055035 2.3509886e-38
-0.092521772 0.069890141 0.078381851 2.3509886e-38
-0.011444554 0.081578448 -0.12258195 2.3509886e-38
0.016750617 -0.01778207 0.038088955 2.3509886e-38
0.031792525 0.054448515 0.082960725 2.3509886e-38
-0.02918439 -0.037979677 -0.050584905 2.3509886e-38
0.018947117 0.0852734 -0.083684281 2.3509886e-38
-0.020476459 0.032299925 0.056355633 2.3509886e-38
0.031787571 0.01351383 0.11159267 2.3509886e-38
-0.015849544 0.023607571 0.037324835 2.3509886e-38
0.013046404 0.038480304 -0.12726595 2.3509886e-38
0.015716534 -0.017138364 -0.12726595 2.3509886e-38
0.0035208126 -0.0017441455 -0.12726595 2.3509886e-38
-0.018214583 0.11358761 0.11731248 2.3509886e-38
0.032813959 0.0041069579 0.07660304 2.3509886e-38
-0.033923812 0.0033556388 0.093682699 2.3509886e-38
-0.024439514 -0.017851682 0.061188214 2.3509886e-38
-0.0065597724 0.042052984 0.12638444 2.3509886e-38
0.026707035 -0.018694723 0.10560486 2.3509886e-38
-0.0073240669 0.15439554 0.11052984 2.3509886e-38
-0.023613859 -0.05411597 0.091690786 2.3509886e-38
-0.022054676 0.00079917687 0.050145708 2.3509886e-38
-0.0043173726 0.10130281 0.075817809 2.3509886e-38
-0.034944993 -0.0032961071 -0.046314988 2.3509886e-38
-0.011124335 0.11814234 0.08231812 2.3509886e-38
-0.019137617 0.0030916783 0.030519679 2.3509886e-38
0.019688834 -0.0047799107 -0.010544196 2.3509886e-38
0.023855813 -0.005645249 0.055652231 2.3509886e-38
-0.022383837 0.014130908 0.054232392 2.3509886e-38
0.030321259 -0.0033774367 0.10421563 2.3509886e-38
-0.049188256 0.052798051 0.075025797 2.3509886e-38
0.036827747 -0.0049613458 -0.09021607 2.3509886e-38
-0.035331115 -0.031782687 -0.10259195 2.3509886e-38
0.022680648 -0.013893058 0.1114117 2.3509886e-38
0.0102482 -0.025550475 0.043665603 2.3509886e-38
-0.026638947 0.081178956 -0.076612346 2.3509886e-38
-0.01832116 0.019506684 0.043471146 2.3509886e-38
-0.078122698 0.074375495 0.075953878 2.3509886e-38
0.032167569 -0.0091745146 0.092479825 2.3509886e-38
-0.014283814 -0.020531381 0.11339585 2.3509886e-38
0.0059307986 0.098446429 0.075875953 2.3509886e-38
0.0087788822 0.12714897 0.08653824 2.3509886e-38
0.036302231 0.011993829 -0.06768284 2.3509886e-38
-0.041375279 0.054227602 0.044147749 2.3509886e-38
0.031047361 0.015140885 0.07034421 2.3509886e-38
-0.0073634456 -0.018121786 -0.12726595 2.3509886e-38
0.014020028 -0.053471334 0.053450946 2.3509886e-38
0.016466372 0.058847964 0.12044162 2.3509886e-38
-0.022286525 0.031801894 -0.045026075 2.3509886e-38
0.0070722997 -0.03175772 -0.027707877 2.3509886e-38
-0.032295015 0.076612234 -0.080717497 2.3509886e-38
0.01824706 0.011241724 0.038522381 2.3509886e-38
-0.061725575 0.050250337 0.062888972 2.3509886e-38
0.013000639 -0.037804011 0.051035069 2.3509886e-38
-0.021458823 0.010826848 0.047384597 2.3509886e-38
0.027962226 0.073185682 -0.11587597 2.3509886e-38
-0.02583147 0.096196875 0.094027132 2.3509886e-38
0.0068415208 0.022578897 -0.038104877 2.3509886e-38
0.024506943 -0.01514666 -0.12721968 2.3509886e-38
-0.017155878 0.079330385 0.12032271 2.3509886e-38
0.0067040287 0.14136526 0.09187407 2.3509886e-38
0.028300326 0.079318337 0.093154959 2.3509886e-38
0.0030850375 0.063007712 -0.053108975 2.3509886e-38
0.0022574319 0.019668696 0.12706053 2.3509886e-38
-0.041903146 0.041579716 0.062795594 2.3509886e-38
0.02169423 -0.032235786 0.10649189 2.3509886e-38
0.034603387 -0.03173469 -0.09450312 2.3509886e-38
-0.094443575 0.077224329 0.06474293 2.3509886e-38
0.019544907 -0.007291731 0.010738747 2.3509886e-38
0.025531264 -0.022472542 -0.12706219 2.3509886e-38
-0.018682428 0.13764314 0.11262272 2.3509886e-38
0.02254051 0.060628429 -0.056554191 2.3509886e-38
0.01041648 0.14470041 0.097502664 2.3509886e-38
0.022948693 -0.035711721 -0.12185545 2.3509886e-38
0.013738901 0.030330967 -0.043228045 2.3509886e-38
0.0048609553 0.084430695 -0.074354909 2.3509886e-38
-0.025720254 0.0044096829 0.059631065 2.3509886e-38
-0.019339871 -0.063362017 0.094827011 2.3509886e-38
0.033743061 0.014175246 0.08749041 2.3509886e-38
-0.024828892 0.066550516 0.11529829 2.3509886e-38
-0.035063375 -0.0069335424 -0.12215148 2.3509886e-38
-0.016207429 -0.044534668 -0.079352006 2.3509886e-38
-0.024029803 0.057591122 0.055977076 2.3509886e-38
0.0310966 -0.02807585 0.078381345 2.3509886e-38
-0.013201046 0.14868587 0.09723907 2.3509886e-38
0.016848192 -0.070621826 0.067476101 2.3509886e-38
0.023109777 -0.0035217188 0.11367562 2.3509886e-38
-0.018897381 0.12122358 0.089097351 2.3509886e-38
-0.010294082 0.044710219 0.052106202 2.3509886e-38
0.0099690631 0.049101382 0.054527156 2.3509886e-38
-0.035315305 0.08045274 0.074815333 2.3509886e-38
-0.12564316 0.047739491 0.058933012 2.3509886e-38
0.030465437 0.062523142 0.091331601 2.3509886e-38
-0.08140865 0.049221151 0.063698426 2.3509886e-38
-0.043424401 0.07983423 0.075056665 2.3509886e-38
-0.0019528575 0.031705052 0.013703656 2.3509886e-38
-0.00034683372 0.13432656 0.12292433 2.3509886e-38
-0.026266843 0.075628802 0.11072199 2.3509886e-38
-0.011826487 0.12287801 0.12197165 2.3509886e-38
-0.026106309 0.027327191 0.11821052 2.3509886e-38
0.02615403 0.044127144 -0.051488861 2.3509886e-38
0.033402167 -0.0015679523 0.084082142 2.3509886e-38
0.02367425 -0.025455363 0.059448093 2.3509886e-38
-0.016681563 0.14050201 0.095862441 2.3509886e-38
-0.036194175 -0.034382239 -0.060886491 2.3509886e-38
0.020304808 0.089464799 0.11349782 2.3509886e-38
0.014647678 0.031872038 0.049487814 2.3509886e-38
0.011984315 0.028204219 -0.12726596 2.3509886e-38
0.0093699656 -0.044405185 0.050656974 2.3509886e-38
0.018792845 0.0020812536 0.018615752 2.3509886e-38
-0.029749302 -0.0070073763 0.06827835 2.3509886e-38
-0.030970594 -0.019427005 0.075968429 2.3509886e-38
0.030653115 0.049798436 0.10432371 2.3509886e-38
-0.019787531 -0.048394375 0.10092963 2.3509886e-38
0.009018559 0.0134851 0.12440491 2.3509886e-38
-0.019358305 0.0064712605 0.018144753 2.3509886e-38
0.0042860596 -0.039822403 -0.11839177 2.3509886e-38
0.029486382 0.028051084 0.11619253 2.3509886e-38
0.030655062 0.056900874 -0.11849155 2.3509886e-38
0.027672186 -0.0097206049 0.062626749 2.3509886e-38
0.031857181 0.050645135 -0.11496241 2.3509886e-38
-0.036315709 0.068023652 0.052876711 2.3509886e-38
0.017463744 0.06056907 0.055038348 2.3509886e-38
-0.037960235 0.042218592 0.052159317 2.3509886e-38
-0.019102607 0.025202699 -0.042084869 2.3509886e-38
-0.038390398 0.046817575 -0.084388763 2.3509886e-38
-0.037446186 0.056216873 -0.089085348 2.3509886e-38
0.019740684 -0.0092007089 -0.020157354 2.3509886e-38
0.0044937111 -0.011635596 -0.12726595 2.3509886e-38
0.024453467 0.067988433 0.061968666 2.3509886e-38
-0.035080548 0.031067602 0.08450868 2.3509886e-38
0.018049132 0.012760624 -0.12726595 2.3509886e-38
0.01522741 -0.020615296 0.012567899 2.3509886e-38
-0.029883204 -0.013461783 0.10079642 2.3509886e-38
-0.021689449 -0.026897265 0.10696171 2.3509886e-38
0.038033701 -0.0016878224 -0.071490504 2.3509886e-38
0.026351534 0.088864006 0.095090985 2.3509886e-38
-0.028443281 0.040615015 0.061593916 2.3509886e-38
-0.0060000792 -0.066423416 0.10171679 2.3509886e-38
0.0015355996 -0.02328839 0.11554271 2.3509886e-38
-0.005935316 -0.063179925 0.054321852 2.3509886e-38
-0.12242869 0.072259434 0.076054327 2.3509886e-38
-0.0076431497 -0.074095756 0.072732531 2.3509886e-38
-0.039515927 0.027941572 -0.069040336 2.3509886e-38
0.032181025 0.058432326 -0.093037903 2.3509886e-38
0.032439809 -0.012080511 0.07678847 2.3509886e-38
-0.0205293 0.089989118 0.077330746 2.3509886e-38
0.032822959 0.020658679 0.11232135 2.3509886e-38
0.0078891236 -0.010483694 0.1186383 2.3509886e-38
0.020553986 -0.01365187 -0.026759798 2.3509886e-38
0.019996399 -0.040166117 -0.10269392 2.3509886e-38
-0.023105439 0.086021841 -0.10017672 2.3509886e-38
-0.12424082 0.069858834 0.054365575 2.3509886e-38
-0.035387296 0.033683419 -0.12272514 2.3509886e-38
-0.039533384 -0.0015713556 -0.090525605 2.3509886e-38
0.030888412 0.037592489 -0.055378594 2.3509886e-38
0.033064023 0.014476405 0.10394447 2.3509886e-38
0.010714957 -0.038417548 -0.1219638 2.3509886e-38
-0.10263334 0.074887164 0.058010194 2.3509886e-38
0.0015629733 0.04520265 0.039657559 2.3509886e-38
0.036723226 -0.013453545 -0.095252275 2.3509886e-38
-0.0076562068 0.14782386 0.11938334 2.3509886e-38
-0.039475244 0.018150043 -0.067047559 2.3509886e-38
0.035891905 -0.0075131198 -0.055136085 2.3509886e-38
-0.0061157267 -0.0714202 0.063150607 2.3509886e-38
0.026639223 0.051318377 0.060600474 2.3509886e-38
-0.05624846 0.078135237 0.072100647 2.3509886e-38
-0.0025861654 -0.026841624 0.041493956 2.3509886e-38
-0.056962315 0.06875705 0.078422695 2.3509886e-38
-0.036841273 0.032340679 -0.062004104 2.3509886e-38
0.033654854 0.023322601 -0.11230488 2.3509886e-38
-0.13362813 0.073945865 0.061800756 2.3509886e-38
-0.036838267 0.00097073324 -0.11213634 2.3509886e-38
-0.019686054 0.072253101 -0.12726595 2.3509886e-38
-0.033781193 -0.03006782 -0.046434894 2.3509886e-38
-0.031403184 -0.019016659 -0.043100197 2.3509886e-38
-0.030832194 0.023819655 -0.12726595 2.3509886e-38
-0.018412869 0.11018369 0.084851302 2.3509886e-38
-0.036027566 0.066138983 -0.10976699 2.3509886e-38
-0.068537042 0.073961198 0.076418638 2.3509886e-38
0.037581146 -0.014862033 -0.084091879 2.3509886e-38
0.030917015 0.0051419251 0.06928432 2.3509886e-38
-0.02612005 0.086669058 0.10854369 2.3509886e-38
0.018691689 -0.016644312 -0.0011907429 2.3509886e-38
0.029366959 0.04400659 0.10958672 2.3509886e-38
-0.084980398 0.076904453 0.071458742 2.3509886e-38
-0.0061670411 0.15155151 0.095525704 2.3509886e-38
0.027839107 0.0066097537 0.058313649 2.3509886e-38
-0.041688941 0.047986176 0.078360677 2.3509886e-38
-0.039397646 0.023244286 -0.080857411 2.3509886e-38
-0.018746397 -0.013372738 0.016030692 2.3509886e-38
-0.017640736 -0.017513733 0.0061499639 2.3509886e-38
-0.010987944 -0.029034451 0.11275669 2.3509886e-38
0.018374316 0.059361085 -0.12726595 2.3509886e-38
-0.029699471 0.037455488 -0.049894936 2.3509886e-38
0.018900394 0.016102793 0.12035416 2.3509886e-38
-0.035391912 0.024222061 -0.054037668 2.3509886e-38
-0.082257628 0.058591485 0.081019238 2.3509886e-38
-0.10826463 0.046961587 0.069779426 2.3509886e-38
-0.03124951 0.044292741 -0.054812834 2.3509886e-38
0.02881014 -0.027620012 0.069152132 2.3509886e-38
0.019396054 -0.04329348 -0.06173851 2.3509886e-38
-0.095151901 0.062844232 0.081011042 2.3509886e-38
0.011859745 0.085770696 -0.1115343 2.3509886e-38
0.032623827 0.030771019 0.075263143 2.3509886e-38
0.033607274 0.033097934 0.092219964 2.3509886e-38
0.022320509 0.073484682 0.067365035 2.3509886e-38
0.0087998118 0.035023022 0.018962383 2.3509886e-38
-0.01025388 -0.07384903 0.093544476 2.3509886e-38
-0.028878286 0.062815741 0.10911462 2.3509886e-38
0.012329092 0.056288581 -0.051252298 2.3509886e-38
0.033573467 0.018654849 0.094453841 2.3509886e-38
-0.039485872 0.0024800189 -0.065646224 2.3509886e-38
-0.017204415 0.03539905 0.1222809 2.3509886e-38
-0.019260321 -0.0069384752 0.026094452 2.3509886e-38
-0.029481558 0.082793407 0.10250674 2.3509886e-38
-0.0032535815 0.078735106 -0.12726595 2.3509886e-38
0.027006034 -0.059009448 0.084906347 2.3509886e-38
0.032932006 0.023090705 0.1027614 2.3509886e-38
0.024359208 -0.05866247 0.06266433 2.3509886e-38
-0.035800528 0.065271251 -0.080201238 2.3509886e-38
-0.02017564 0.0041719694 0.038274102 2.3509886e-38
-0.024963668 -0.04373372 0.066845506 2.3509886e-38
-0.0018984945 0.053063832 -0.04828871 2.3509886e-38
-0.012424428 0.044146467 -0.046276648 2.3509886e-38
-0.016594699 -0.042648848 -0.092688806 2.3509886e-38
-0.038895715 0.036912955 -0.06964156 2.3509886e-38
0.011257995 -0.027576713 -0.012392174 2.3509886e-38
-0.0037163096 -0.05330018 0.052248914 2.3509886e-38
0.036415238 -0.030617185 -0.066809066 2.3509886e-38
-0.074755721 0.049507834 0.069112979 2.3509886e-38
0.036064208 0.0212446 -0.074177787 2.3509886e-38
-0.035012126 0.02000552 0.072559536 2.3509886e-38
0.024932094 0.060440503 0.11369794 2.3509886e-38
-0.016266162 -0.034275901 0.10853021 2.3509886e-38
0.023368735 0.013602754 -0.041395091 2.3509886e-38
-0.0044741197 0.12318678 0.081614554 2.3509886e-38
-0.039539713 0.0095221968 -0.086367004 2.3509886e-38
0.0054757358 0.031066887 -0.041860308 2.3509886e-38
-0.047620714 0.06153151 0.078326501 2.3509886e-38
-0.023761343 -0.058274884 0.075717837 2.3509886e-38
-0.010494014 -0.034411076 -0.03651733 2.3509886e-38
-0.019158546 -0.018326547 -0.016967731 2.3509886e-38
-0.031753808 -0.00038213935 0.070943207 2.3509886e-38
0.020418122 -0.042519234 -0.083956771 2.3509886e-38
-0.0087674372 0.059048172 0.055286929 2.3509886e-38
0.02282856 -0.018856479 -0.035202526 2.3509886e-38
-0.040046401 -0.0072081275 -0.073242962 2.3509886e-38
0.012523795 0.012491831 -0.016874067 2.3509886e-38
-0.042396542 0.044634163 0.071201146 2.3509886e-38
-0.0031997834 0.035000402 0.12659286 2.3509886e-38
-0.0096511487 -0.04128414 -0.10881961 2.3509886e-38
-0.015246729 -0.022520296 0.0011999644 2.3509886e-38
0.013117072 0.014201451 -0.0063885706 2.3509886e-38
0.024294803 -0.068035722 0.074045464 2.3509886e-38
0.019056596 0.0068061235 0.048079018 2.3509886e-38
-0.020574875 -0.005767968 0.042308398 2.3509886e-38
-0.006138999 0.01613643 -0.12726593 2.3509886e-38
0.014662862 -0.019694503 0.029759526 2.3509886e-38
0.016129809 -0.074253745 0.082752816 2.3509886e-38
-0.012703805 0.075690061 -0.12726595 2.3509886e-38
-0.10171942 0.069326103 0.053205211 2.3509886e-38
0.030664392 -0.03596659 -0.1004447 2.3509886e-38
-0.020366855 -0.067213327 0.088030234 2.3509886e-38
0.0063760658 0.081534736 0.067211896 2.3509886e-38
0.017678881 -0.063458025 0.098618045 2.3509886e-38
0.018189663 0.10554154 0.11236894 2.3509886e-38
-0.040414646 0.066053294 0.041834898 2.3509886e-38
0.013364289 -0.031892531 -0.036279608 2.3509886e-38
0.0097381752 0.13398588 0.11865807 2.3509886e-38
0.02985098 0.0048601204 0.10931651 2.3509886e-38
0.0029753309 0.087038897 -0.081599049 2.3509886e-38
-0.039122086 -0.008334863 -0.061349735 2.3509886e-38
0.01749428 -0.027436411 -0.031335961 2.3509886e-38
-0.030787567 0.07103271 0.096522883 2.3509886e-38
-0.13397318 0.067414656 0.079308003 2.3509886e-38
-0.00091796089 0.023590744 0.0040350044 2.3509886e-38
0.0038706863 0.018510168 -0.0071984036 2.3509886e-38
-0.033285864 0.0062426007 -0.045863569 2.3509886e-38
0.0085135177 -0.039557822 -0.049982987 2.3509886e-38
0.034118157 0.029769067 -0.063372366 2.3509886e-38
0.032861568 0.036579885 -0.1148362 2.3509886e-38
-0.0040112315 0.074009508 0.12510361 2.3509886e-38
0.028341774 0.0001621194 -0.042344533 2.3509886e-38
0.035131671 0.032129545 -0.076355368 2.3509886e-38
-0.028328937 0.080090202 0.089265496 2.3509886e-38
0.015409105 -0.030320123 0.11077077 2.3509886e-38
-0.01137689 -0.030137189 -0.024065513 2.3509886e-38
-0.03581072 0.068965301 -0.088034391 2.3509886e-38
-0.01811236 0.085870981 -0.079817206 2.3509886e-38
-0.019419119 0.10238617 0.08408469 2.3509886e-38
-0.02215896 -0.066063501 0.079843506 2.3509886e-38
0.010146029 0.023976486 0.0094608124 2.3509886e-38
-0.03507999 0.01152892 0.08558248 2.3509886e-38
-0.015705522 -0.03514253 -0.12416993 2.3509886e-38
0.027817186 -0.038731962 -0.061783686 2.3509886e-38
-0.030188756 -0.042388238 -0.074097328 2.3509886e-38
0.024555743 0.034535006 -0.12716462 2.3509886e-38
-0.011241146 0.058564302 -0.050719246 2.3509886e-38
0.0016480974 0.11090387 0.079773746 2.3509886e-38
-0.033405945 -0.032889575 -0.1182229 2.3509886e-38
0.0088358419 0.041505516 0.051162396 2.3509886e-38
-0.027970565 -0.020173507 0.10223709 2.3509886e-38
-0.019620556 -0.0091096861 0.0030596051 2.3509886e-38
-0.13337922 0.069865674 0.055290062 2.3509886e-38
0.017041339 0.079875603 -0.068843193 2.3509886e-38
0.031812184 -0.03137283 -0.11923163 2.3509886e-38
-0.0048090997 0.020195935 -0.03660905 2.3509886e-38
0.028923886 0.068993889 0.082228355 2.3509886e-38
0.024074772 -0.067095935 0.088289484 2.3509886e-38
0.013092531 0.041961554 0.12394154 2.3509886e-38
0.0078442534 -0.023380218 0.036108945 2.3509886e-38
-0.053621382 0.072742082 0.055117238 2.3509886e-38
-0.030690165 0.064772248 0.086197078 2.3509886e-38
-0.03963561 -0.016824014 -0.083419405 2.3509886e-38
0.035882592 -0.013778601 -0.10549147 2.3509886e-38
-0.032489717 0.032456581 0.11046686 2.3509886e-38
-0.037848428 0.02106598 -0.10964011 2.3509886e-38
0.030688267 -0.013490322 -0.043987934 2.3509886e-38
-0.061029501 0.052000277 0.055113435 2.3509886e-38
-0.01665559 0.080709621 -0.068869859 2.3509886e-38
0.006819902 0.041057792 0.043709982 2.3509886e-38
0.021699248 0.046597015 0.11740649 2.3509886e-38
-0.014999157 0.033337712 0.047180116 2.3509886e-38
0.018654224 0.0001088737 -0.0052613569 2.3509886e-38
0.024302309 0.082460947 0.081879623 2.3509886e-38
-0.011911113 0.085200109 0.12258833 2.3509886e-38
-0.026375188 -0.0084681036 -0.03752305 2.3509886e-38
0.022087313 -0.0089083044 -0.033057515 2.3509886e-38
0.0052718548 -0.025249191 0.016066968 2.3509886e-38
-0.019037213 0.034919932 -0.12726595 2.3509886e-38
0.032829437 0.022143478 -0.11976625 2.3509886e-38
0.029935542 -0.010829471 0.10209221 2.3509886e-38
0.008175822 0.10710174 0.12072502 2.3509886e-38
0.00069935614 0.0046326029 -0.12231876 2.3509886e-38
0.010254316 0.1193517 0.084596336 2.3509886e-38
-0.010366134 0.015899733 -0.031399515 2.3509886e-38
-0.028210841 -0.030830238 0.094627649 2.3509886e-38
-0.052803375 0.05059699 0.05986204 2.3509886e-38
-0.022428781 -0.040904984 -0.053874165 2.3509886e-38
-0.042229939 0.063080736 0.050027523 2.3509886e-38
-0.0043044449 0.082549624 0.06734895 2.3509886e-38
0.0088350661 0.11090563 0.081271559 2.3509886e-38
-0.03716962 0.006714351 -0.10665835 2.3509886e-38
-0.018637639 0.0051276325 -0.008665856 2.3509886e-38
0.01647928 0.0086655151 -0.012208219 2.3509886e-38
-0.0059234537 -0.040266827 0.050316792 2.3509886e-38
0.027855003 -0.031236846 0.098344147 2.3509886e-38
0.012913745 0.023282398 0.016501911 2.3509886e-38
-0.033800907 0.053456366 -0.063411765 2.3509886e-38
-0.016419208 0.039822198 0.056447811 2.3509886e-38
-0.0017480995 0.13114057 0.084519103 2.3509886e-38
0.014004688 0.07400851 0.063110434 2.3509886e-38
-0.010483057 0.030940337 0.017055904 2.3509886e-38
0.014843382 0.092260942 0.11784843 2.3509886e-38
-0.13140057 0.062994502 0.051617913 2.3509886e-38
-0.024198472 0.0066732108 -0.037962507 2.3509886e-38
0.015673367 0.043731935 -0.047759976 2.3509886e-38
-0.0053459085 0.11724497 0.12390734 2.3509886e-38
0.0097718537 -0.055724904 0.10569128 2.3509886e-38
-0.034912296 0.058828041 0.083484672 2.3509886e-38
-0.035707157 0.01988728 0.080833957 2.3509886e-38
-0.0032825717 0.069608621 0.058224365 2.3509886e-38
0.00054725772 -0.047673155 0.10877143 2.3509886e-38
0.0097853867 0.026017277 0.12486589 2.3509886e-38
0.031966206 0.049107883 -0.065997295 2.3509886e-38
-0.033283811 0.083659247 0.06288591 2.3509886e-38
0.010530207 0.14807884 0.11211871 2.3509886e-38
-0.12229814 0.057807792 0.081466392 2.3509886e-38
0.030260684 0.024696726 0.057492185 2.3509886e-38
0.034116924 0.026120523 0.083748296 2.3509886e-38
-0.0095345592 0.08818087 0.070328325 2.3509886e-38
-0.028855704 -0.038297568 -0.10775935 2.3509886e-38
-0.028952096 0.035480328 -0.12726595 2.3509886e-38
0.0068788379 0.087957554 0.12239318 2.3509886e-38
0.022555724 0.024257382 0.11944601 2.3509886e-38
0.036812376 -0.00070295809 -0.063270703 2.3509886e-38
0.0016881137 -0.029551096 -0.0079634842 2.3509886e-38
-0.030132774 0.053929292 -0.057320878 2.3509886e-38
-0.019049793 -0.041167047 -0.10387185 2.3509886e-38
-0.03407646 0.068220519 -0.067373954 2.3509886e-38
-0.028139796 0.075182885 0.059703037 2.3509886e-38
-0.11479361 0.053549975 0.079992197 2.3509886e-38
0.019523492 -0.0054908437 -0.12713049 2.3509886e-38
0.010888083 -0.063635163 0.055239119 2.3509886e-38
-0.030636065 -0.029508384 0.084927365 2.3509886e-38
0.019449934 -0.017402824 -0.020353084 2.3509886e-38
-0.029847076 -0.0024705164 -0.10778008 2.3509886e-38
0.032018103 -0.020851901 0.078867689 2.3509886e-38
0.019154456 -0.012522342 0.0053980383 2.3509886e-38
-0.0089303814 0.04035759 0.022673875 2.3509886e-38
-0.017242743 0.019637559 -0.12726595 2.3509886e-38
-0.032202702 0.047688909 0.10303179 2.3509886e-38
-0.013483316 0.0072387401 -0.11800642 2.3509886e-38
0.029368682 0.062392823 0.1019713 2.3509886e-38
0.0015054103 -0.041875985 -0.056463972 2.3509886e-38
-0.14082129 0.047202196 0.061196357 2.3509886e-38
-0.13051189 0.046662871 0.074836664 2.3509886e-38
0.033192299 0.054322217 -0.079828516 2.3509886e-38
0.019587398 -0.0066842558 9.6563017e-05 2.3509886e-38
-0.026246624 -0.051822901 0.082314193 2.3509886e-38
-0.039203469 0.020569425 -0.095132656 2.3509886e-38
0.025840275 0.073181599 -0.067626938 2.3509886e-38
0.02955059 -0.040453695 0.083742626 2.3509886e-38
-0.015112399 -0.07315392 0.071645215 2.3509886e-38
0.034139752 0.038364582 -0.071767859 2.3509886e-38
-0.050340261 0.075303748 0.075853124 2.3509886e-38
-0.041407004 0.071425736 0.083714038 2.3509886e-38
0.031516928 0.0082875341 -0.12707002 2.3509886e-38
0.013651954 0.091817245 0.076163001 2.3509886e-38
-0.024429969 0.0143447 -0.041133549 2.3509886e-38
-0.013194539 0.13608962 0.12012745 2.3509886e-38
-0.064155087 0.052540939 0.076885067 2.3509886e-38
0.017350212 -0.041469917 -0.093921274 2.3509886e-38
-0.010567175 0.087326467 -0.097654387 2.3509886e-38
0.02690566 0.066235684 0.10767476 2.3509886e-38
-0.016980575 0.012551699 0.013718021 2.3509886e-38
-0.019282442 0.0018956398 -0.016755629 2.3509886e-38
-0.015984528 0.08511012 -0.11455899 2.3509886e-38
-0.031700198 -0.0096893907 -0.042475991 2.3509886e-38
-0.0056754397 0.064440392 -0.052965656 2.3509886e-38
0.019744847 0.072669581 -0.063699432 2.3509886e-38
0.02079821 0.066933803 -0.12726595 2.3509886e-38
-0.015825273 0.060199369 0.055647511 2.3509886e-38
-0.038188584 0.041311808 -0.10257226 2.3509886e-38
-0.035691381 -0.032254986 -0.091017686 2.3509886e-38
-0.0082957083 -0.075275019 0.08126501 2.3509886e-38
-0.0028092051 -0.055109948 0.10633601 2.3509886e-38
-0.019816635 -0.0087597631 -0.0089966636 2.3509886e-38
0.0069198241 0.15298764 0.10049075 2.3509886e-38
0.013515589 0.027742159 0.039974045 2.3509886e-38
0.015598217 0.068408154 0.057325229 2.3509886e-38
-0.0026705698 0.087619334 -0.10659134 2.3509886e-38
0.024610048 0.022804674 -0.12726595 2.3509886e-38
-0.016258433 -0.042683199 0.10576575 2.3509886e-38
0.029046025 0.056589097 0.072612464 2.3509886e-38
0.033816591 -0.018263513 -0.11668181 2.3509886e-38
-0.0089076925 -0.039784323 -0.047731023 2.3509886e-38
-0.13127728 0.073669411 0.07329309 2.3509886e-38
0.031703252 0.052395098 0.090784974 2.3509886e-38
-0.036339615 0.049303204 0.051652852 2.3509886e-38
0.025638187 -0.046447888 0.063477524 2.3509886e-38
-0.0060680071 0.0098796058 -0.12165512 2.3509886e-38
-0.10234223 0.049638003 0.07812193 2.3509886e-38
-0.0046080761 0.11568326 0.079775073 2.3509886e-38
0.017096773 0.011802372 0.02572418 2.3509886e-38
-0.14192133 0.071447365 0.065262057 2.3509886e-38
0.03499632 -0.0033273695 -0.11045298 2.3509886e-38
-0.028034326 -0.044111334 0.08176294 2.3509886e-38
-0.078235269 0.052858777 0.07861916 2.3509886e-38
-0.018813195 0.0127459 -0.035384253 2.3509886e-38
-0.0099154487 -0.044092041 -0.088537283 2.3509886e-38
-0.032174304 0.027141854 0.067342304 2.3509886e-38
-0.05440335 0.056587879 0.078384727 2.3509886e-38
0.022421345 -0.0180564 0.055968583 2.3509886e-38
-0.01126212 0.084676191 -0.075571343 2.3509886e-38
0.013659242 0.12427691 0.11640978 2.3509886e-38
0.0023041572 0.083959401 -0.11958249 2.3509886e-38
0.033439077 0.007267979 0.094477117 2.3509886e-38
-0.034724072 0.023684783 0.086792827 2.3509886e-38
-0.0085867001 0.0025238986 0.12252685 2.3509886e-38
-0.08489161 0.053506516 0.051814895 2.3509886e-38
0.021136897 -0.026825009 -0.037857071 2.3509886e-38
-0.038324062 0.079050995 0.081218615 2.3509886e-38
-0.0027509711 0.017208641 -0.016678868 2.3509886e-38
-0.027835958 0.082818784 -0.095675662 2.3509886e-38
-0.036124621 0.045212794 -0.11543576 2.3509886e-38
-0.026107002 0.087323055 0.086228311 2.3509886e-38
0.018622143 -0.041423764 0.10606519 2.3509886e-38
0.012007846 -0.021293478 0.021923037 2.3509886e-38
-0.023046924 0.06632413 -0.05821323 2.3509886e-38
0.037021384 -0.026710993 -0.076735228 2.3509886e-38
-0.0032736775 -0.029562749 -0.12654375 2.3509886e-38
-0.023188859 0.00063305208 0.11444392 2.3509886e-38
0.032794967 0.031823847 0.10329247 2.3509886e-38
-0.021336718 0.121146 0.11242595 2.3509886e-38
-0.03808609 -0.027251363 -0.057182826 2.3509886e-38
-0.015427299 -0.025506038 0.049166441 2.3509886e-38
-0.076099463 0.067974329 0.079160735 2.3509886e-38
-0.020558629 -0.023276545 -0.031536452 2.3509886e-38
-0.033973567 -0.0052291476 0.087422535 2.3509886e-38
-0.020091888 0.049519561 0.056715231 2.3509886e-38
-0.093969293 0.065105155 0.051614337 2.3509886e-38
-0.039573573 -0.019578241 -0.0643593 2.3509886e-38
-0.080994032 0.062548332 0.051241949 2.3509886e-38
-0.017851977 0.012337366 0.022061208 2.3509886e-38
-0.0055473624 0.077905513 -0.062673971 2.3509886e-38
-0.015798574 0.022371817 0.026377898 2.3509886e-38
-0.036954999 0.012826498 -0.054307837 2.3509886e-38
-0.046331767 0.078727283 0.058104299 2.3509886e-38
-0.11548463 0.047425214 0.074752823 2.3509886e-38
0.0054521686 0.020271618 0.00087823381 2.3509886e-38
-0.00099872076 0.086860016 -0.11355206 2.3509886e-38
-0.017643543 -0.029889805 -0.033319339 2.3509886e-38
-0.093361713 0.049564149 0.075448953 2.3509886e-38
-0.039111473 0.064107485 0.089344755 2.3509886e-38
-0.10255569 0.068367571 0.079092652 2.3509886e-38
0.0016321186 0.042668097 -0.045256667 2.3509886e-38
0.038120136 -0.015529061 -0.070727348 2.3509886e-38
0.032490265 0.016285764 -0.050390646 2.3509886e-38
-0.021570107 -0.045263398 -0.067496903 2.3509886e-38
-0.0087558618 0.080930293 -0.068481237 2.3509886e-38
-0.0238695 0.036357168 0.11920308 2.3509886e-38
-0.013939716 -0.021547141 0.017006524 2.3509886e-38
-0.1123987 0.059324767 0.050780661 2.3509886e-38
-0.034533292 0.0022149421 0.085897811 2.3509886e-38
-0.020082429 0.12807642 0.093632482 2.3509886e-38
-0.0039159469 0.072647966 -0.057664223 2.3509886e-38
-0.062369619 0.058242783 0.051769316 2.3509886e-38
-0.02789985 0.094918795 0.10297668 2.3509886e-38
-0.010401526 0.039561026 0.04470307 2.3509886e-38
-0.023288634 -0.029614074 -0.039465964 2.3509886e-38
-0.02641758 0.080367133 0.080900602 2.3509886e-38
0.029061083 0.040470973 0.063796937 2.3509886e-38
-0.018708093 0.0075327437 -0.030389041 2.3509886e-38
-0.013730526 -0.064743407 0.058847599 2.3509886e-38
-0.016183307 -0.025050411 -0.019003913 2.3509886e-38
0.016745046 0.0073250234 -0.024104275 2.3509886e-38
-0.0025480753 0.045196876 0.032159589 2.3509886e-38
0.02393933 0.044874623 0.058689628 2.3509886e-38
-0.0040935562 0.087233432 -0.079452053 2.3509886e-38
0.01673218 -0.038808409 -0.11700629 2.3509886e-38
0.021765856 0.1119816 0.097942561 2.3509886e-38
-0.0012901602 0.089626499 0.071142003 2.3509886e-38
0.02717514 -0.0038621342 -0.12682956 2.3509886e-38
0.037160765 0.0078209676 -0.075872339 2.3509886e-38
-0.032226831 0.011136537 0.10394277 2.3509886e-38
-0.014035227 0.016426658 -0.0004557916 2.3509886e-38
-0.024099519 0.096533127 0.086659893 2.3509886e-38
-0.0010758936 0.055741332 -0.12726595 2.3509886e-38
0.011520868 -0.0026709777 0.12003402 2.3509886e-38
-0.010769219 0.02341464 0.0081971269 2.3509886e-38
-0.020119768 0.016411081 0.11971602 2.3509886e-38
0.029796755 -0.017517252 0.069423109 2.3509886e-38
0.021706197 -0.021765539 0.10998945 2.3509886e-38
0.035505798 -0.023702288 -0.11007168 2.3509886e-38
0.0091734398 -0.073926687 0.07109753 2.3509886e-38
-0.039560616 0.0095194671 -0.066989079 2.3509886e-38
-0.069892615 0.078772321 0.069898196 2.3509886e-38
-0.039333589 -0.013907755 -0.090064116 2.3509886e-38
0.0098039974 0.034393933 0.12488701 2.3509886e-38
0.031205453 0.025486588 -0.051517554 2.3509886e-38
0.02262935 -0.034491152 0.058556393 2.3509886e-38
-0.014362467 0.10819189 0.12053182 2.3509886e-38
-0.016078506 -0.041070864 -0.050525762 2.3509886e-38
0.017663926 0.11970277 0.094292104 2.3509886e-38
-0.020085661 0.085396796 0.1173486 2.3509886e-38
-0.013185745 0.098977506 0.11984631 2.3509886e-38
0.023393987 0.078351684 -0.073019773 2.3509886e-38
0.022266496 0.10133269 0.10660462 2.3509886e-38
-0.003904267 -0.046346888 -0.077688694 2.3509886e-38
-0.13999513 0.060468383 0.052369222 2.3509886e-38
-0.017246775 0.024878848 0.12205585 2.3509886e-38
0.027216446 0.057875235 -0.12726595 2.3509886e-38
-0.019479293 -0.067493491 0.069793522 2.3509886e-38
-0.038773973 0.035647638 -0.090182364 2.3509886e-38
0.019111218 -0.016297383 -0.012137472 2.3509886e-38
0.023835508 -0.039032537 -0.054193683 2.3509886e-38
-0.036078196 0.019969949 -0.12276384 2.3509886e-38
-0.021262527 0.00083135872 -0.028959712 2.3509886e-38
-0.0098885717 -0.024903797 0.042825334 2.3509886e-38
0.014266188 -0.027448757 -0.024600809 2.3509886e-38
-0.038349699 -0.0027513821 -0.054954026 2.3509886e-38
0.013578648 0.081176907 0.069738656 2.3509886e-38
-0.036446989 0.027260788 -0.11883748 2.3509886e-38
4.3485197e-05 0.14140531 0.088118672 2.3509886e-38
-0.13471924 0.049440444 0.055902235 2.3509886e-38
-0.0098295361 -0.0063082892 0.11969074 2.3509886e-38
-0.012352726 0.013421989 -0.024854194 2.3509886e-38
-0.013183535 0.10165871 0.079350546 2.3509886e-38
-0.066101506 0.065601319 0.079973251 2.3509886e-38
0.016106606 0.020221487 0.035269231 2.3509886e-38
0.0080545666 -0.045183845 -0.076389536 2.3509886e-38
0.00040214718 0.0021583957 0.12245152 2.3509886e-38
0.035107624 0.022551268 -0.066120408 2.3509886e-38
-0.01074716 -0.044766337 0.053384736 2.3509886e-38
0.012592884 0.1171042 0.11731926 2.3509886e-38
0.0047118803 0.043637849 0.032892972 2.3509886e-38
-0.018033639 0.02404495 0.049017631 2.3509886e-38
-0.0093948971 0.072922267 0.05981208 2.3509886e-38
-0.021792635 0.10733729 0.11325539 2.3509886e-38
-0.018553015 -0.04347704 0.058992673 2.3509886e-38
-0.018886551 -0.016105555 -0.004496004 2.3509886e-38
0.020947782 0.0073542097 0.11739028 2.3509886e-38
0.033178322 -0.00073854008 0.091181085 2.3509886e-38
-0.039141461 0.030604785 -0.084087268 2.3509886e-38
0.012189409 0.045915645 -0.12726595 2.3509886e-38
0.015104035 -0.050812822 0.10478954 2.3509886e-38
-0.033042397 -0.0060552983 0.096057855 2.3509886e-38
-0.02138412 -0.023344468 0.057708342 2.3509886e-38
-0.015052075 0.082534328 0.068127625 2.3509886e-38
0.018781405 -0.010686292 0.031263061 2.3509886e-38
-0.024109624 0.047525361 0.11767469 2.3509886e-38
-0.11269304 0.074254654 0.07276538 2.3509886e-38
-0.020344272 -0.016693287 -0.02566229 2.3509886e-38
-0.029806575 0.072767437 0.10485536 2.3509886e-38
0.0060686846 0.04119258 0.024360731 2.3509886e-38
-0.010133372 0.014623067 -0.018025875 2.3509886e-38
0.030999616 0.0081118634 -0.046313718 2.3509886e-38
-0.1082468 0.07615681 0.062980503 2.3509886e-38
-0.015248737 0.00088329165 -0.11397283 2.3509886e-38
-0.021310937 -0.03535312 0.059913889 2.3509886e-38
-0.098287091 0.048226163 0.058527797 2.3509886e-38
0.036170863 0.0044013229 -0.093014061 2.3509886e-38
0.036150984 0.017475072 -0.083180353 2.3509886e-38
0.021856675 0.0016544913 0.052305855 2.3509886e-38
-0.036792263 0.057426389 -0.079279274 2.3509886e-38
0.034148 0.03448762 -0.1016547 2.3509886e-38
0.032301567 0.053914808 -0.10511816 2.3509886e-38
-0.0054143742 -0.042853806 -0.10003385 2.3509886e-38
0.015689543 0.020350916 0.027252842 2.3509886e-38
-0.031628322 0.058282755 0.054261439 2.3509886e-38
0.016692335 0.020590901 -0.12726595 2.3509886e-38
-0.036900833 0.063305438 -0.096114486 2.3509886e-38
-0.028298348 0.032483581 0.063272312 2.3509886e-38
-0.039666556 0.014472623 -0.073783025 2.3509886e-38
0.031538486 0.049245548 0.097204998 2.3509886e-38
0.0016989078 0.081210464 -0.068523735 2.3509886e-38
0.030573091 0.046792105 0.074154519 2.3509886e-38
0.014418163 -0.029704629 0.049747452 2.3509886e-38
-0.038372681 -0.023771968 -0.085737452 2.3509886e-38
-0.033247434 0.028666565 0.10154044 2.3509886e-38
-0.093561396 0.048133709 0.068018019 2.3509886e-38
-0.011046539 0.058273796 -0.12726595 2.3509886e-38
0.0030553578 0.1187938 0.08160869 2.3509886e-38
-0.0070288279 -0.024345363 0.034930635 2.3509886e-38
-0.037376285 0.05951665 -0.10708174 2.3509886e-38
-0.024276026 0.058557119 -0.053880759 2.3509886e-38
-0.06890174 0.049988374 0.059450369 2.3509886e-38
-0.037034471 0.081783399 0.055970877 2.3509886e-38
-0.015338432 -0.0098322947 0.11582144 2.3509886e-38
0.026098331 0.017717943 0.11684927 2.3509886e-38
-0.036155112 0.0030076243 -0.12377043 2.3509886e-38
0.021504564 0.012141916 0.052912362 2.3509886e-38
0.00493553 0.069150284 -0.12726595 2.3509886e-38
0.037232269 -0.023742916 -0.069024816 2.3509886e-38
-0.037906218 -0.020299572 -0.049416091 2.3509886e-38
-0.037713941 0.046385832 -0.07098756 2.3509886e-38
0.027695533 0.074285328 -0.079096451 2.3509886e-38
-0.027125567 -0.033792052 -0.044958401 2.3509886e-38
-0.013518806 -0.057094738 0.10280743 2.3509886e-38
0.010884553 0.082481548 -0.12152987 2.3509886e-38
-0.026870612 -0.041136611 0.090331398 2.3509886e-38
0.021922486 0.080385402 -0.11744905 2.3509886e-38
-0.033286341 0.020041659 0.10030562 2.3509886e-38
-0.062678993 0.077662647 0.058973286 2.3509886e-38
-0.036193915 0.063568823 -0.11756577 2.3509886e-38
0.019464361 -0.0061469199 0.02167681 2.3509886e-38
0.026916696 -0.045646839 0.094882369 2.3509886e-38
0.013184127 -0.00068324961 -0.12721597 2.3509886e-38
0.020247739 -0.056364808 0.10038132 2.3509886e-38
-0.13026978 0.045540813 0.065575935 2.3509886e-38
0.03398978 -0.030280288 -0.104835 2.3509886e-38
-0.0077710631 0.10714559 0.0789648 2.3509886e-38
-0.01517364 0.071983464 -0.059782594 2.3509886e-38
0.019441798 0.0017287643 0.038445551 2.3509886e-38
-0.10327955 0.053075343 0.05187688 2.3509886e-38
-0.033600364 0.072734252 -0.11177383 2.3509886e-38
0.023738721 -0.069858566 0.08147119 2.3509886e-38
-0.07318294 0.060637757 0.080645792 2.3509886e-38
0.018628189 0.11890008 0.10827843 2.3509886e-38
0.0145829 -0.031194579 -0.12547354 2.3509886e-38
0.0041606813 -0.029756552 0.044942509 2.3509886e-38
-0.037165072 0.014396276 -0.11790156 2.3509886e-38
0.029364364 0.067807376 -0.076537572 2.3509886e-38
0.013509245 0.13927127 0.11265534 2.3509886e-38
-0.012611663 0.012593783 0.12244205 2.3509886e-38
0.002517092 0.016836075 -0.027173482 2.3509886e-38
0.036290988 0.010368645 -0.088919893 2.3509886e-38
0.016472504 -0.02293824 -0.016193736 2.3509886e-38
-0.0075008208 0.085163258 -0.11724206 2.3509886e-38
0.026533164 0.014610903 -0.12726595 2.3509886e-38
-0.0920702 0.055036053 0.080738679 2.3509886e-38
0.01612553 0.1296947 0.11070291 2.3509886e-38
0.0072607766 -0.030002855 -0.019982694 2.3509886e-38
0.034045745 0.013041528 -0.11269835 2.3509886e-38
-0.03095164 -0.040173374 -0.062244523 2.3509886e-38
0.011951949 -0.074048355 0.092215464 2.3509886e-38
-0.032811411 0.037076555 0.10490546 2.3509886e-38
-0.023803363 0.084763646 -0.11093634 2.3509886e-38
0.03045083 0.036562257 0.071278423 2.3509886e-38
-0.034494825 0.037562966 0.088512465 2.3509886e-38
-0.03904786 0.035417788 -0.07838133 2.3509886e-38
-0.10540824 0.04746937 0.063013487 2.3509886e-38
-0.019403344 -0.0041336692 0.01907286 2.3509886e-38
-0.038332134 0.014638588 -0.10625371 2.3509886e-38
0.019398015 0.080307536 0.073758952 2.3509886e-38
0.033328395 0.040140793 -0.1081746 2.3509886e-38
0.029027063 -0.024196049 0.098985747 2.3509886e-38
0.019899687 0.049173523 -0.050509378 2.3509886e-38
0.018687477 0.00089305057 0.010600313 2.3509886e-38
-0.015229146 -0.072272316 0.088253714 2.3509886e-38
-0.020484595 -0.0044240886 -0.020693004 2.3509886e-38
0.018342292 0.11291324 0.11229306 2.3509886e-38
0.032575026 0.018342573 0.061627708 2.3509886e-38
-0.022978563 0.024331011 -0.12726595 2.3509886e-38
0.017808499 0.080242127 0.11765277 2.3509886e-38
-0.032890756 0.025136799 0.11064146 2.3509886e-38
0.005922772 0.017063821 -0.016655352 2.3509886e-38
0.036731381 -0.020164203 -0.092183381 2.3509886e-38
-0.011731682 -0.027841136 -0.012979789 2.3509886e-38
-0.028821576 -0.0165591 0.068474069 2.3509886e-38
-0.026198793 0.016994294 -0.12726595 2.3509886e-38
0.021454006 0.035497904 0.11998737 2.3509886e-38
0.004581234 0.088002011 -0.10193127 2.3509886e-38
0.018801471 -0.013695337 0.015269499 2.3509886e-38
-0.022626322 -0.019430835 0.10883533 2.3509886e-38
-0.0031455338 0.025403533 -0.12726595 2.3509886e-38
-0.071911365 0.073170647 0.054561231 2.3509886e-38
-0.022396781 -0.056312315 0.066755161 2.3509886e-38
0.028999761 0.063974649 0.07703948 2.3509886e-38
0.012660448 0.083412118 -0.074492559 2.3509886e-38
0.031675328 0.060678281 -0.076996468 2.3509886e-38
0.00076870871 0.039906718 0.015461346 2.3509886e-38
0.017978769 -0.073027879 0.075592905 2.3509886e-38
-0.13710146 0.055446163 0.080251448 2.3509886e-38
0.025006279 -0.036706973 0.10198781 2.3509886e-38
0.028670304 0.072886586 0.09671513 2.3509886e-38
0.03416222 0.039466679 -0.08895874 2.3509886e-38
-0.016433341 0.065197803 -0.055825029 2.3509886e-38
-0.0014151352 0.086690389 0.12446044 2.3509886e-38
-0.03637065 -0.035066202 -0.076597966 2.3509886e-38
-0.029468438 0.068756357 0.05638808 2.3509886e-38
-0.0073182788 -0.027118081 0.0031553004 2.3509886e-38
-0.0021194355 0.14129755 0.12222898 2.3509886e-38
-0.010966259 -0.026573827 -0.12726595 2.3509886e-38
0.014704544 0.14197361 0.10480243 2.3509886e-38
-5.4889475e-05 0.08783187 -0.093460113 2.3509886e-38
0.0015461703 0.09340395 0.12307814 2.3509886e-38
-0.032522518 -0.019451026 0.083339579 2.3509886e-38
-0.010010952 0.04882928 -0.12726593 2.3509886e-38
-0.011193624 0.067476451 -0.12726595 2.3509886e-38
0.0067495038 0.11827336 0.12187773 2.3509886e-38
-0.011435105 0.087230474 -0.10626384 2.3509886e-38
0.00062387483 -0.024179943 0.035201773 2.3509886e-38
-0.015809173 0.0066774557 0.11982006 2.3509886e-38
-0.0014653266 0.10635797 0.12329926 2.3509886e-38
0.007445361 0.012787179 -0.12631837 2.3509886e-38
0.024940573 -0.055795886 0.094280005 2.3509886e-38
-0.015303376 0.021777034 0.018211944 2.3509886e-38
0.0098366654 -0.026683092 -0.003314205 2.3509886e-38
-0.022597369 -0.026239684 -0.12602529 2.3509886e-38
-0.01700373 0.051828161 -0.049900725 2.3509886e-38
-0.00044968515 -0.032816239 -0.030932052 2.3509886e-38
0.016115915 -0.020954954 0.045237832 2.3509886e-38
0.034998879 0.027907893 -0.09320201 2.3509886e-38
-0.03837575 -0.0037771277 -0.098454848 2.3509886e-38
-0.039372623 0.018367957 -0.087308034 2.3509886e-38
0.035735965 -0.0062002023 -0.10364892 2.3509886e-38
-0.025956072 0.10468653 0.10051986 2.3509886e-38
-0.042575866 0.085254028 0.070315436 2.3509886e-38
0.024198245 -0.040577441 -0.096624598 2.3509886e-38
0.010962291 0.086658701 -0.084292054 2.3509886e-38
0.031987861 0.043160237 -0.060142554 2.3509886e-38
0.014602775 -0.018200321 0.11450823 2.3509886e-38
-0.037660778 -0.023977285 -0.098533124 2.3509886e-38
0.025794616 -0.06025444 0.071728326 2.3509886e-38
-0.026797671 0.015389519 0.11607689 2.3509886e-38
-0.036251012 -0.016329719 -0.11796976 2.3509886e-38
-0.14244317 0.055550572 0.061228268 2.3509886e-38
0.0053131981 0.075392216 0.12451373 2.3509886e-38
-0.010749828 0.096359901 0.074569933 2.3509886e-38
-0.035767458 -0.036302939 -0.068622828 2.3509886e-38
0.01666579 0.051361576 0.12083846 2.3509886e-38
0.028277749 -0.053447936 0.078215592 2.3509886e-38
-0.031940334 0.0027169443 0.10313002 2.3509886e-38
-0.035711564 0.059092194 -0.067723289 2.3509886e-38
-0.017971896 -0.03496848 -0.041882258 2.3509886e-38
0.0076782061 -0.036175806 -0.040300384 2.3509886e-38
0.0033439561 0.021732049 -0.12726595 2.3509886e-38
0.0069226483 -0.045361854 -0.066700518 2.3509886e-38
-0.0043565305 -0.030578937 -0.014881115 2.3509886e-38
0.019515703 0.042679187 -0.12726595 2.3509886e-38
-0.0077842074 0.11016867 0.12353931 2.3509886e-38
0.030858312 0.065876931 -0.088062666 2.3509886e-38
0.00063096755 -0.04351867 0.050307866 2.3509886e-38
-0.08504355 0.077729337 0.061234899 2.3509886e-38
-0.031154858 0.079713799 -0.11113048 2.3509886e-38
-0.051311567 0.059057657 0.052196033 2.3509886e-38
0.023759466 -0.065413184 0.066007785 2.3509886e-38
-0.020273753 0.13453379 0.099586457 2.3509886e-38
-0.023314204 -0.043760713 -0.077390835 2.3509886e-38
-0.093400925 0.056629021 0.050822906 2.3509886e-38
0.0086270142 -0.075604357 0.083390422 2.3509886e-38
-0.023934823 0.10265863 0.090466037 2.3509886e-38
0.010272024 -0.040462252 0.11006073 2.3509886e-38
0.021903949 -0.041608445 0.057318479 2.3509886e-38
-0.1233339 0.075579964 0.063651353 2.3509886e-38
-0.032632381 0.016983978 0.11040892 2.3509886e-38
-0.024814149 -0.04947488 0.071951523 2.3509886e-38
-0.014484679 -0.019625662 -0.12726595 2.3509886e-38
-0.013653467 -0.022978287 0.009224101 2.3509886e-38
-0.04023803 -0.016852643 -0.07165467 2.3509886e-38
-0.028450191 -0.038037088 0.077619791 2.3509886e-38
0.027212018 -0.037608996 0.066403218 2.3509886e-38
-0.026621716 0.072871342 -0.064718068 2.3509886e-38
-0.023380473 -0.0038169981 -0.12726595 2.3509886e-38
-0.021216234 0.079175882 0.063504666 2.3509886e-38
0.036177214 -0.029722413 -0.087330364 2.3509886e-38
-0.038003571 0.049628463 -0.098032802 2.3509886e-38
-0.0029584013 -0.075943783 0.087204397 2.3509886e-38
0.022324413 0.006543817 -0.1272122 2.3509886e-38
-0.036296628 -0.032616589 -0.083395362 2.3509886e-38
-0.032154098 0.077444777 -0.088884197 2.3509886e-38
-0.033050373 0.070706487 0.079605266 2.3509886e-38
-0.0048208237 0.062328618 -0.12726595 2.3509886e-38
-0.012754923 0.052472431 0.054791283 2.3509886e-38
0.00049280073 -0.044262335 -0.063634187 2.3509886e-38
-0.010614254 0.14277616 0.090878174 2.3509886e-38
0.00099338731 -0.034214757 0.11271577 2.3509886e-38
0.035290908 0.01614856 -0.097391792 2.3509886e-38
0.037137106 -0.018173907 -0.06014315 2.3509886e-38
-0.010340917 0.039162651 0.03389905 2.3509886e-38
0.025362274 0.060482457 0.059368856 2.3509886e-38
0.019909775 -0.0031318674 0.045080699 2.3509886e-38
0.0075377375 0.141187 0.11827038 2.3509886e-38
-0.033893477 -0.00065063854 0.078515172 2.3509886e-38
-0.039860792 0.0041421829 -0.0727375 2.3509886e-38
0.023709601 0.082480408 -0.1048618 2.3509886e-38
-0.038827643 -0.025113661 -0.073788352 2.3509886e-38
0.0049774796 0.066368572 0.12482055 2.3509886e-38
0.028778991 0.066134185 -0.12196054 2.3509886e-38
0.030833643 0.034426771 0.11189991 2.3509886e-38
-0.038051628 0.074172333 0.04805728 2.3509886e-38
-0.044143997 0.04646308 0.057138667 2.3509886e-38
-0.040873304 0.039833788 0.076630868 2.3509886e-38
-0.019519541 0.0031134058 0.0041338857 2.3509886e-38
-0.080894306 0.073172599 0.054149885 2.3509886e-38
0.019721573 -0.0085901478 0.038197931 2.3509886e-38
0.033448998 0.026159486 0.095252812 2.3509886e-38
0.024924049 -0.042561308 -0.077456295 2.3509886e-38
0.02458497 0.081641406 -0.086327896 2.3509886e-38
-0.032672055 -0.012930394 0.092883117 2.3509886e-38
0.0075666457 0.087475196 0.071389049 2.3509886e-38
0.029094763 0.072765179 -0.089001298 2.3509886e-38
-0.017689332 0.0098197637 0.0021894281 2.3509886e-38
0.024553532 0.021568997 -0.044350132 2.3509886e-38
0.023432 0.0053748637 -0.039265085 2.3509886e-38
0.021998649 0.029210597 0.055772968 2.3509886e-38
0.007169229 -0.042656407 -0.092412122 2.3509886e-38
0.0017359999 -0.015511461 0.11753614 2.3509886e-38
0.0011540015 0.052487321 0.12522997 2.3509886e-38
-0.0017030868 -0.039432451 -0.048106894 2.3509886e-38
0.029124996 0.034302406 0.059634149 2.3509886e-38
0.0046521672 0.041538481 -0.12726595 2.3509886e-38
-0.014625696 0.049182247 0.12256585 2.3509886e-38
0.017503712 0.0063665686 0.0048415856 2.3509886e-38
0.0068621468 0.073717937 0.061329424 2.3509886e-38
-0.0074239089 0.026409836 -0.039983936 2.3509886e-38
0.010908003 0.038512155 -0.045208551 2.3509886e-38
