# .PCD v0.7 - Point Cloud Data file format
VERSION 0.7
FIELDS x y z
SIZE 4 4 4
TYPE F F F
COUNT 1 1 1
WIDTH 1335
HEIGHT 1
VIEWPOINT 0 0 0 1 0 0 0
POINTS 1335
DATA ascii
0.19802591 0.0078619681 -0.59069437
0.19342062 -0.024311703 -0.57848942
0.17764623 -0.018953793 -0.60439217
0.16832028 0.00085581653 -0.63149577
0.1703905 -0.04373493 -0.62037432
0.16549785 0.001231754 -0.63903427
0.19581169 -0.051623423 -0.57823563
0.17803675 -0.059359051 -0.60353243
0.17977855 -0.055712529 -0.5996958
0.18896039 0.0016614536 -0.58886498
0.17803091 -0.050009947 -0.60354519
0.16559036 -0.046613336 -0.63094747
0.18201272 0.0037228125 -0.61141491
0.17238499 -0.067248814 -0.61598146
0.17581837 -0.030656621 -0.60841846
0.16783914 -0.0005987655 -0.62744206
0.17213237 0.0041326503 -0.6489985
0.17364419 0.00029383332 -0.6177935
0.16964304 -0.077802755 -0.64128494
0.18990529 -0.06745936 -0.57884854
0.19086666 -0.017988816 -0.57875669
0.17068437 -0.03242784 -0.64681941
0.17703921 -0.01377278 -0.60572922
0.16850613 0.0033800886 -0.63996041
0.17218067 -0.0049617388 -0.61643082
0.17455415 -0.073782116 -0.61633319
0.17199612 -0.074409768 -0.62417412
0.17068167 -0.048248172 -0.64681357
0.18275878 -0.079798728 -0.61941254
0.18816665 0.0079049328 -0.61256188
0.20471039 -0.057580322 -0.57730663
0.17906025 -0.050222643 -0.60127795
0.16837306 -0.052659448 -0.64335686
0.19346678 -0.076641463 -0.58472741
0.16521475 -0.027257159 -0.6317746
0.16875902 0.0022806446 -0.63553834
0.17294121 -0.06412106 -0.61475629
0.20282294 -0.081599951 -0.58155078
0.19209242 0.0082414597 -0.60509789
0.18042943 0.0019236484 -0.60857743
0.17373818 -0.030038904 -0.61300039
0.17246979 -0.07662046 -0.63090235
0.17722476 -0.068527348 -0.60532111
0.17942829 -0.010603501 -0.60046685
0.17051211 -0.018077811 -0.62010622
0.18790191 -0.07671991 -0.59726048
0.18021289 -0.026097782 -0.59873879
0.16349691 -0.047215991 -0.63555861
0.16605228 -0.00068233791 -0.63990033
0.1684773 -0.059337057 -0.62458861
0.17916957 -0.052998617 -0.6010372
0.16678135 -0.067216747 -0.64097136
0.1987842 -0.047081523 -0.57792646
0.20478457 0.0051033571 -0.57730889
0.16731417 -0.040363278 -0.62715048
0.18835148 -0.0057551749 -0.5808121
0.18845654 -0.031975187 -0.58058095
0.18558112 -0.061393511 -0.58691484
0.16600814 -0.043505806 -0.63002717
0.18480773 -0.0306118 -0.58861804
0.17726055 -0.016557241 -0.60524172
0.17787126 -0.00062793342 -0.60524225
0.16386348 -0.072114825 -0.6347515
0.17447707 -0.011143229 -0.61137271
0.18280201 0.0010117724 -0.60014588
0.17419019 -0.066094868 -0.61200517
0.20288539 -0.006045077 -0.57750475
0.20296654 -0.02935642 -0.57749206
0.19372755 -0.02661987 -0.578457
0.18853149 0.0054557952 -0.60314846
0.17306435 -0.0090485858 -0.61448437
0.18612605 0.00066122029 -0.59159178
0.18545097 -0.041610435 -0.58720124
0.18279563 -0.024948131 -0.59304988
0.17064372 0.0034523709 -0.64677107
0.16744307 -0.075565517 -0.64195859
0.1704796 -0.050299607 -0.6201781
0.17828885 0.00022672804 -0.60732704
0.20266297 -0.046911392 -0.57752222
0.19276306 -0.079240158 -0.59541309
0.16855459 -0.026892424 -0.62441802
0.16738312 -0.057956427 -0.62699872
0.19817546 -0.041926697 -0.57799077
0.18207377 -0.030293617 -0.59463996
0.20332161 -0.072207555 -0.57744873
0.18085089 -0.06291914 -0.59733391
0.18834731 -0.027940977 -0.58082151
0.19589576 -0.078574784 -0.58617377
0.17329675 -0.024927137 -0.6139726
0.17411931 -0.013333994 -0.6121608
0.16861124 -0.068495087 -0.64370888
0.16509688 -0.024793964 -0.63203418
0.16375639 -0.049867678 -0.63498706
0.17633495 -0.074031822 -0.61328858
0.19565086 -0.045449249 -0.57825339
0.18983364 -0.027015999 -0.57886285
0.17052884 -0.022317726 -0.62006938
0.17065825 -0.075248271 -0.6467694
0.18576863 -0.055967391 -0.58650172
0.18876472 -0.061535504 -0.57990247
0.16339512 -0.058302704 -0.63578296
0.16905744 -0.073825136 -0.62859184
0.17581038 -0.055242546 -0.60843635
0.16599229 -0.070320927 -0.6300624
0.16431957 -0.037698932 -0.63374645
0.16892335 -0.033995952 -0.62360585
0.19359578 -0.02107434 -0.57847172
0.17080453 -0.024632515 -0.61946213
0.1652164 -0.011974406 -0.63864589
0.16704324 -0.042581249 -0.62774718
0.17125693 -0.030707207 -0.61846578
0.17564413 -0.038025465 -0.60880232
0.19458272 -0.072396062 -0.5783599
0.18125978 -0.078302428 -0.61745399
0.19264521 0.0034060436 -0.58688164
0.16603151 -0.072882846 -0.63984752
0.18589143 -0.022811091 -0.58623087
0.17069271 -0.0095960433 -0.6197083
0.16951084 -0.063670084 -0.62231219
0.16589591 -0.04822325 -0.63965136
0.1748475 -0.075870313 -0.62302798
0.16349624 -0.043587368 -0.63555998
0.18293667 -0.047978438 -0.59273952
0.18551505 -0.017611332 -0.58705986
0.18646315 -0.060655057 -0.58497202
0.16960981 -0.038352206 -0.64521015
0.18043722 -0.052342273 -0.59824491
0.18139364 -0.080196269 -0.62381691
0.17132577 -0.035452448 -0.64777821
0.19382879 -0.044408474 -0.57844347
0.18562412 -0.074341923 -0.59391779
0.1731956 0.0066763866 -0.64121902
0.16545856 -0.03271126 -0.63900179
0.17165756 0.0020457637 -0.64828742
0.17819738 -0.077531442 -0.62148893
0.183457 0.00014988112 -0.5956732
0.17327631 -0.053070441 -0.61401808
0.16838461 -0.077582374 -0.64328218
0.1905861 -0.0025586314 -0.5787884
0.19985305 -0.03328979 -0.57781744
0.16602203 -0.0039964039 -0.62999612
0.17449465 -0.023613976 -0.61133409
0.17576107 -0.053116463 -0.60854495
0.16980191 -0.0050202436 -0.62167037
0.18912821 -0.042323973 -0.57910162
0.17974991 -0.077037111 -0.61633146
0.18306048 -0.059119258 -0.59246689
0.19054136 -0.024527302 -0.57878947
0.17810352 -0.072474532 -0.60391843
0.18339095 -0.0159327 -0.59173852
0.1668811 -0.006941651 -0.62810391
0.17405494 0.0032834464 -0.62739855
0.1833169 -0.073797531 -0.59708601
0.17692977 0.0072759283 -0.63510162
0.18519066 -0.06378898 -0.58777487
0.18644525 -0.016873131 -0.58501101
0.16885701 -0.071903229 -0.64407539
0.18060143 -0.075946085 -0.61062044
0.17578946 0.0033785389 -0.62391227
0.16695847 -0.0033921865 -0.6279335
0.16935475 0.0037243315 -0.64484274
0.18037498 -0.069216393 -0.59838223
0.17003608 -0.059611052 -0.64584374
0.19362257 0.0024181132 -0.58125579
0.18980448 -0.056825165 -0.57886082
0.1870515 -0.072552301 -0.58448243
0.16690238 -0.025059914 -0.62805724
0.17130116 -0.07905633 -0.6420396
0.16776595 -0.025651004 -0.62615514
0.18606728 0.0043157181 -0.60456842
0.16727328 -0.055605739 -0.62724066
0.17320693 0.00084278511 -0.62068641
0.17576668 -0.081612736 -0.64119065
0.17610811 -0.046478212 -0.6077804
0.18149079 -0.039117627 -0.59592414
0.20195781 0.0080196848 -0.5825882
0.19382489 -0.013076378 -0.57844913
0.1975012 -0.032694981 -0.57806265
0.17618611 -0.011194877 -0.6076082
0.1755148 -0.023658309 -0.60908705
0.16785125 -0.0084975986 -0.62596709
0.17283508 -0.0069052875 -0.61498934
0.19073223 0.0019399471 -0.58594126
0.18322055 -0.040121201 -0.59211415
0.18100646 -0.030512251 -0.59699088
0.16899364 -0.02336257 -0.64429295
0.16623053 -0.052260503 -0.62953746
0.17287162 -0.061911546 -0.61490953
0.17949791 -0.060116623 -0.60031402
0.18495055 0.0022175903 -0.59965229
0.16852181 -0.061807115 -0.64357734
0.17682627 -0.08045613 -0.63479072
0.16590706 -0.0078048799 -0.63024944
0.18949744 0.0082976818 -0.61101133
0.16944942 -0.047981299 -0.64496857
0.18266197 0.00032077136 -0.59802514
0.16532777 -0.034339283 -0.63152564
0.18174067 -0.074313425 -0.60237151
0.17125647 -0.022038821 -0.64767867
0.17753145 -0.064137958 -0.60464549
0.17492372 -0.054791361 -0.61038935
0.1873329 -0.061145462 -0.58305633
0.19258122 -0.076736197 -0.58701098
0.17643221 -0.06966114 -0.60706681
0.18172663 -0.021645801 -0.59540451
0.19698018 -0.056245349 -0.57811296
0.1734871 -0.011319962 -0.61355323
0.16920689 -0.0076626954 -0.62298101
0.18328139 -0.066467606 -0.59198046
0.16661853 0.0021638772 -0.64074844
0.17514874 -0.018535404 -0.60989332
0.1633784 -0.052944168 -0.63588387
0.18010926 -0.037662379 -0.59896713
0.17723423 -0.047181129 -0.60529995
0.18526433 -0.070077434 -0.58761269
0.17183952 -0.045072682 -0.64854711
0.17920536 0.008233347 -0.63345498
0.17314832 -0.079032697 -0.63788784
0.18246633 -0.02764634 -0.59377527
0.17934103 0.0035735792 -0.61677504
0.16620894 -0.074051566 -0.63566208
0.17144178 -0.078475922 -0.63968945
0.19147506 0.0031822487 -0.58867228
0.17304829 -0.0046971221 -0.61451972
0.20101056 0.0013783863 -0.57770181
0.16707401 -0.0059847734 -0.64142698
0.17348188 -0.048821002 -0.61356515
0.17938459 -0.06908109 -0.6005637
0.1648583 -0.07241255 -0.6328752
0.1958597 -0.054208092 -0.57823008
0.16642889 -0.021301547 -0.64045691
0.17630929 -0.077130914 -0.6242398
0.1855965 -0.011470109 -0.58688045
0.16836286 -0.048834279 -0.6433416
0.19020194 -0.07552892 -0.58800745
0.17170374 -0.067099109 -0.64833653
0.16623756 -0.02904648 -0.62952161
0.18055622 -0.080857255 -0.62798518
0.18030094 -0.0043299058 -0.5985446
0.18794791 -0.067032479 -0.58170164
0.17900307 -0.06420999 -0.60140407
0.16527109 -0.068039767 -0.63165098
0.17212859 -0.051191669 -0.61654603
0.1777222 -0.079614714 -0.62985927
0.16830552 -0.019609313 -0.64326465
0.16742149 -0.046358138 -0.6419341
0.19923325 0.0057161949 -0.58049166
0.19234069 0.0010813077 -0.57937992
0.1633693 -0.034924991 -0.63587576
0.19136593 -0.076756015 -0.58975744
0.17305961 -0.037347395 -0.61449516
0.18897471 -0.070222147 -0.57944006
0.18417299 -0.011085792 -0.59001589
0.19633943 -0.079444185 -0.58825296
0.17549416 -0.065604679 -0.60913301
0.1938583 0.0035818762 -0.58482778
0.16600053 -0.065965079 -0.63004422
0.18383637 -0.0036829493 -0.59075731
0.17320374 -0.069781363 -0.61417806
0.17069924 -0.073060937 -0.64683151
0.17799312 -0.028833603 -0.60362828
0.18211988 0.0075569428 -0.62465751
0.17551348 -0.057527669 -0.60909033
0.16734196 -0.037275236 -0.64181793
0.17489976 -0.0022871494 -0.61044157
0.1985243 -0.007770244 -0.5779593
0.16440231 -0.00024883775 -0.63743186
0.16725931 -0.064518906 -0.62727153
0.19228093 0.0064437096 -0.59836274
0.19787589 -0.081546172 -0.59225827
0.17892222 -0.077090979 -0.61834395
0.17105976 -0.011271954 -0.64738822
0.18218553 -0.0028250467 -0.59439355
0.18236047 -0.060986798 -0.5940088
0.17066845 0.0040743398 -0.63763809
0.18345955 -0.033132076 -0.5915876
0.18775009 -0.033351306 -0.58213711
0.1728732 -0.039661482 -0.61490577
0.18256356 0.0051526278 -0.61522806
0.17582178 -0.067758933 -0.60841137
0.16559058 -0.022177354 -0.63094664
0.19812895 -0.027205126 -0.57799816
0.19032584 -0.073633447 -0.58107096
0.17557433 -0.043640323 -0.6089561
0.18972237 -0.010898286 -0.57887721
0.18329839 0.0032778401 -0.60701871
0.18338272 -0.028712906 -0.59175682
0.16595462 -0.011185305 -0.63014472
0.17695169 -0.072323665 -0.60592514
0.18760371 -0.025717204 -0.58245939
0.16694571 -0.071833774 -0.62796235
0.16560006 -0.059425827 -0.63920534
0.1995707 -0.014014875 -0.57784891
0.1916464 0.0012105501 -0.58136356
0.18514238 0.0067291697 -0.61509001
0.16383703 -0.065576583 -0.6365661
0.18336892 -0.077380612 -0.6095677
0.20050189 -0.071473636 -0.57774282
0.16718304 -0.050884228 -0.62743938
0.18458842 0.0082608173 -0.62169462
0.17596716 -0.03278723 -0.6080907
0.1857464 -0.077245176 -0.60385489
0.18477386 -0.081101783 -0.61955482
0.17687619 -0.0099455863 -0.60608822
0.1826003 -0.013995083 -0.59348005
0.17878287 0.0042307591 -0.62031472
0.19734997 0.0049701161 -0.58201706
0.18422337 -0.075622737 -0.60150588
0.19082013 0.0047420077 -0.59559822
0.17233029 -0.077997103 -0.63604915
0.18325827 -0.061554216 -0.59203124
0.19360076 0.0051299608 -0.59083718
0.16339077 -0.029220702 -0.63579214
0.19273189 -0.081604928 -0.60379505
0.17064324 -0.070806816 -0.64674848
0.17136699 -0.00054718845 -0.61985278
0.20174299 -0.073834918 -0.577613
0.17535228 -0.012940835 -0.60944492
0.17241885 -0.046911769 -0.61590666
0.18553077 -0.046523318 -0.58702558
0.18734093 -0.011036928 -0.58303803
0.16444786 -0.051343173 -0.6334641
0.18056352 -0.042521745 -0.59796661
0.18351579 -0.069852374 -0.59146416
0.2047786 -0.054516546 -0.57730013
0.20473066 -0.067792743 -0.57730258
0.1693773 -0.07655558 -0.63748598
0.17964169 -0.04301158 -0.59999716
0.18157782 -0.043490928 -0.59573245
0.17064622 0.00080891064 -0.62620765
0.1920763 -0.059612531 -0.57862353
0.17010696 -0.030618019 -0.62099874
0.18788485 -0.075179636 -0.59188324
0.16860081 -0.017443908 -0.62431616
0.16368273 -0.068367526 -0.63514954
0.17799896 -0.034485791 -0.6036154
0.18230286 -0.050546233 -0.59413558
0.17857614 -0.079443455 -0.62737626
0.18793823 -0.045112241 -0.58172274
0.18637794 -0.005538614 -0.58515912
0.18664418 -0.042258553 -0.58457303
0.1773138 -0.051379532 -0.60512477
0.17600195 -0.081098415 -0.63886428
0.20178527 -0.056376677 -0.57761186
0.18884201 -0.065465204 -0.57973224
0.18131651 -0.049257167 -0.59630811
0.18430968 -0.058115784 -0.5897153
0.16943111 -0.043059349 -0.64494133
0.18207347 0.0014416736 -0.60326183
0.17126958 -0.016215639 -0.61843771
0.16421731 -0.034101047 -0.63397169
0.16731811 -0.0027804642 -0.64179331
0.1760364 -0.027352029 -0.60793817
0.1780515 -0.0028364505 -0.60349935
0.20206852 -0.035681922 -0.57758605
0.16829643 -0.066425666 -0.64323854
0.17581351 0.0082290564 -0.6409111
0.18923137 -0.075530328 -0.59015024
0.17123921 -0.065412536 -0.61850518
0.17830315 -0.068440273 -0.6029458
0.17172384 -0.0069902986 -0.61743701
0.17153259 -0.04330714 -0.61785877
0.17186078 -0.018415032 -0.61713558
0.18697795 0.0063346564 -0.60966003
0.18180621 -0.077318609 -0.61279178
0.18433538 -0.054957192 -0.58965868
0.18557334 -0.0091953669 -0.58693135
0.18049337 0.0069509568 -0.6261099
0.17515416 -0.029144501 -0.60988152
0.16801654 -0.046766978 -0.62560332
0.1937792 -0.081190653 -0.60003191
0.19812462 -0.060343638 -0.57799292
0.16973193 0.00079390203 -0.62816882
0.18655309 -0.0098968456 -0.5847733
0.19243939 0.0078723542 -0.60303599
0.18157434 -0.036527865 -0.59574008
0.19499889 -0.077235714 -0.58344179
0.16873717 -0.0016394868 -0.62401563
0.18444547 -0.01493583 -0.58941579
0.16906483 -0.050093867 -0.62329441
0.19082272 -0.079501726 -0.60060644
0.16560119 -0.03232519 -0.63092339
0.17322816 0.0053879591 -0.63661796
0.16337089 -0.024259711 -0.63583589
0.20219983 -0.033490717 -0.57757241
0.17648892 0.0049408241 -0.62786376
0.17339468 -0.080602914 -0.6428653
0.19699103 0.0065211831 -0.58826041
0.16531432 -0.039302431 -0.63155538
0.18773627 -0.01863868 -0.58216733
0.18880597 0.0072695878 -0.60892022
0.1721305 0.0010827042 -0.62390089
0.17119864 -0.072379433 -0.61879313
0.17749426 -0.043698359 -0.60472715
0.18133636 -0.0054393341 -0.596264
0.184164 0.0025539424 -0.60256726
0.18432885 -0.006240658 -0.58967263
0.17640056 0.0057874187 -0.63103461
0.16524222 -0.055016134 -0.63867146
0.18791905 -0.070956916 -0.58176529
0.17623594 -0.016162613 -0.60749853
0.19414847 -0.0050293533 -0.57841635
0.19758537 -0.030533155 -0.57805425
0.18422236 -0.060270164 -0.58990765
0.17762594 -0.070386082 -0.60443747
0.18460591 -0.028479483 -0.58906251
0.16824301 -0.020447496 -0.62510431
0.17683992 -0.0063085216 -0.60616815
0.17195532 -0.055996649 -0.61692774
0.17314199 0.0033060699 -0.629489
0.19710118 -0.0048402911 -0.57810831
0.17332453 -0.06752874 -0.61391199
0.17599583 -0.00010049273 -0.61122739
0.16826147 -0.066447489 -0.62506413
0.18546376 -0.038472731 -0.5871731
0.17161545 -0.077703305 -0.64820081
0.16965413 -0.010269621 -0.62199593
0.18443252 0.0071012513 -0.61796153
0.18246609 -0.032598536 -0.59377587
0.1879424 -0.007625937 -0.58171314
0.16468129 -0.016928047 -0.63294947
0.18309489 -0.080737278 -0.62197161
0.17978492 -0.023622554 -0.59968144
0.18347311 -0.051626578 -0.59155792
0.17071241 -0.00028286577 -0.62222385
0.17390969 -0.038205676 -0.61262268
0.16965649 -0.076142341 -0.6354183
0.17142653 -0.0032471414 -0.61809194
0.1704334 -0.03582501 -0.62027979
0.17377138 0.0051250933 -0.6344974
0.17479384 -0.0319691 -0.6106751
0.19640258 -0.08004611 -0.59022987
0.17389594 0.0078703379 -0.64387369
0.18984735 -0.077177674 -0.59458458
0.17139617 0.0061028744 -0.64789772
0.16860934 -0.031752363 -0.6242975
0.16563171 -0.072270483 -0.63085669
0.17206381 -0.072349548 -0.61678249
0.17133488 -0.059547119 -0.64778715
0.17578843 -0.050849855 -0.60848463
0.1710813 -0.055989038 -0.61885285
0.19006139 -0.040082343 -0.57883686
0.16716632 -0.066705137 -0.62747633
0.16942646 -0.032506309 -0.64493763
0.16986412 -0.027080184 -0.645594
0.18117668 -0.02677859 -0.59661591
0.16474281 -0.04159455 -0.63281423
0.16458501 -0.06968113 -0.63768423
0.17595682 -0.079143226 -0.63209027
0.20319107 -0.019546885 -0.57747018
0.19127128 -0.075421393 -0.5852741
0.1779979 0.00090011355 -0.61033511
0.18045102 -0.022310674 -0.59821427
0.16895863 -0.056482628 -0.64423269
0.1965578 -0.011182986 -0.57816374
0.18140846 -0.07940232 -0.62099314
0.17206565 -0.075468108 -0.64887518
0.18266313 -0.00088563416 -0.59378153
0.18768501 -0.064971231 -0.5822807
0.18572046 -0.051265031 -0.58660781
0.16872787 -0.045434918 -0.64388859
0.17448045 -0.0066422224 -0.61136514
0.16583881 -0.0046867505 -0.63957947
0.16859123 -0.016045023 -0.64369333
0.18572758 -0.076097071 -0.59986013
0.16722862 -0.014570894 -0.62733853
0.18775193 -0.014663205 -0.58213282
0.16948429 -0.069976985 -0.64501464
0.18023023 -0.018349933 -0.59870052
0.17495248 -0.0043700775 -0.61032546
0.17834258 -0.0067875106 -0.60285825
0.1681765 -0.0046574278 -0.6430769
0.16501531 -0.0083821109 -0.63221365
0.17141321 -0.027232487 -0.61812145
0.17283279 -0.013514687 -0.61499453
0.17751727 -0.038155202 -0.60467649
0.17030516 -0.056611542 -0.64624745
0.17290962 0.0020999953 -0.62576103
0.19832547 -0.07904613 -0.58247912
0.20408604 -0.010411239 -0.57737863
0.18644673 0.0017861351 -0.59484005
0.17388016 -0.078359395 -0.63390899
0.19858341 -0.052600607 -0.57794648
0.17390858 -0.032126188 -0.61262506
0.18071574 0.0059613646 -0.62214118
0.18614383 -0.074021444 -0.59164643
0.18505466 -0.0014131421 -0.58807379
0.19019784 0.00084780244 -0.58327901
0.16749889 -0.074296027 -0.63368011
0.20165139 -0.059713162 -0.57762527
0.1779772 -0.078480296 -0.62530959
0.16715056 -0.033532444 -0.62751073
0.16808611 -0.0032838404 -0.62544966
0.18851078 -0.016178679 -0.58046132
0.19898075 0.0076172091 -0.58773071
0.17736068 -0.026535776 -0.60502124
0.19340634 -0.017944876 -0.57849199
0.1704758 -0.07289236 -0.62218851
0.16495541 -0.064825736 -0.63234621
0.18924046 0.0034908268 -0.59467918
0.16831593 -0.030898087 -0.64327681
0.19436097 -0.031194419 -0.57839024
0.16887298 -0.0023482544 -0.64411974
0.17989044 -0.039822578 -0.59944922
0.17862356 -0.01902427 -0.60223943
0.17335311 -0.01663878 -0.61384845
0.2009052 -0.049413148 -0.57770503
0.17181614 -0.027933465 -0.64851391
0.17950475 -0.027486354 -0.60029858
0.18395206 -0.018610576 -0.59050262
0.18098024 -0.067593455 -0.59704906
0.18923759 0.004626615 -0.59867829
0.18830276 -0.079875447 -0.60747087
0.19639033 0.0083009154 -0.59584004
0.18294296 -0.044464901 -0.59272557
0.16964912 -0.052346338 -0.64526725
0.1796436 -0.02032049 -0.59999275
0.1668119 -0.030967932 -0.62825656
0.17973405 -0.079433627 -0.62479132
0.20334761 -0.080949478 -0.57810837
0.1658639 -0.030033687 -0.63960898
0.17424466 0.002173386 -0.62307835
0.17353807 -0.034223877 -0.61344123
0.1944664 -0.0096370513 -0.57838225
0.17275032 0.0057002292 -0.63876826
0.1943105 -0.058460087 -0.5783909
0.17862156 -0.031605691 -0.60224396
0.16963816 -0.063199997 -0.64524722
0.17422286 -0.044243433 -0.61193299
0.1707823 -0.076013848 -0.63248682
0.17277205 -0.018572312 -0.61512834
0.18332082 -0.0016356066 -0.59189284
0.17053582 -0.054323267 -0.64659333
0.16969244 -0.053708963 -0.621912
0.17101139 0.0060501285 -0.64382857
0.18917377 -0.0043188296 -0.57900089
0.1719045 -0.075754903 -0.62910467
0.17120707 -0.033326309 -0.61857557
0.16682471 -0.014619421 -0.64105105
0.19947818 0.0071995109 -0.58516669
0.16656454 -0.044485886 -0.64065266
0.17015496 -0.057476304 -0.6208933
0.17189951 -0.025436509 -0.61705035
0.16718471 -0.027981397 -0.62743539
0.18403402 -0.02373145 -0.5903222
0.18546714 -0.0067775897 -0.58716536
0.16588433 -0.041342568 -0.63029987
0.18662034 -0.048485171 -0.58462566
0.167476 -0.069113076 -0.64201009
0.18456164 0.0012923493 -0.59725636
0.17157587 -0.0063945269 -0.64816213
0.18025705 -0.0128938 -0.5986414
0.18736589 -0.075626671 -0.59459794
0.17876872 -0.044932429 -0.60192001
0.20346737 -0.0017682947 -0.57744491
0.18477321 -0.078886487 -0.61176848
0.19817142 -0.044085145 -0.57799089
0.17061074 -0.016612988 -0.64671457
0.20200044 -0.03132293 -0.57759321
0.19830187 -0.049520761 -0.57797635
0.17350143 -0.045648895 -0.61352205
0.18679331 0.0034337542 -0.59986877
0.16706453 -0.045779385 -0.62770033
0.1867439 -0.020881524 -0.58435321
0.19028829 -0.00042425288 -0.57881987
0.17244777 -0.035646193 -0.61584282
0.16891548 0.00039315457 -0.64418435
0.17082006 -0.029788688 -0.64702314
0.17413756 -0.059102025 -0.61212099
0.19432938 -0.075994357 -0.58055246
0.16612126 -0.026317406 -0.62977779
0.20481202 -0.024516806 -0.57730013
0.18896009 -0.078200012 -0.600133
0.17577489 -0.0035840473 -0.60851395
0.1844822 -0.04981 -0.5893352
0.16846076 -0.076607361 -0.63968688
0.16436161 -0.027251996 -0.63365376
0.18476078 -0.039891489 -0.58872151
0.1734648 -0.081515156 -0.64591771
0.16876234 -0.04045441 -0.6439417
0.18326426 -0.064068221 -0.59201813
0.18194082 -0.078115143 -0.61529553
0.17710555 -0.053691607 -0.60558355
0.17185099 -0.010854614 -0.61715704
0.16939576 -0.070199579 -0.62256575
0.20086448 -0.017465582 -0.57771331
0.19649518 -0.0028076442 -0.57817197
0.17053647 -0.01486709 -0.62005252
0.17786552 -0.055979814 -0.60390961
0.16530256 -0.045275159 -0.63876462
0.16410346 -0.015190287 -0.63422227
0.17899913 0.0023142518 -0.61310107
0.19298668 -0.050215997 -0.57853031
0.17172125 -0.018851111 -0.64837515
0.1676231 -0.039472312 -0.64223778
0.17469949 -0.021580823 -0.61088288
0.17832258 -0.026906304 -0.60290247
0.18599233 -0.071524337 -0.58600914
0.17909379 -0.040861834 -0.60120392
0.17425576 -0.052585125 -0.61186057
0.17143044 -0.068725273 -0.61808401
0.16828831 -0.058528874 -0.64322907
0.18877339 -0.013240291 -0.57988286
0.17183074 -0.013580971 -0.61720163
0.16631964 0.0005884397 -0.63496262
0.19254678 0.0050677322 -0.59294003
0.18235476 -0.068152718 -0.59402144
0.17010187 -0.0068803551 -0.6459567
0.17638728 -0.06530048 -0.60716575
0.19710447 -0.078751236 -0.58413184
0.17652461 -0.058932342 -0.60686314
0.16685991 -0.021289824 -0.62815076
0.17074823 0.0033322885 -0.63485378
0.18888059 -0.074024871 -0.58563042
0.16510791 -0.044883139 -0.63201016
0.17253964 -0.02057164 -0.61564028
0.18681012 0.0052615036 -0.60625708
0.17016794 0.0046730288 -0.6408453
0.17257664 -0.02911271 -0.61555886
0.1697299 -0.025652386 -0.62182921
0.1933783 -0.079016373 -0.5932712
0.18430494 -0.021225329 -0.58972543
0.17752719 0.004634548 -0.6245001
0.16874816 -0.010153135 -0.62399149
0.1637658 -0.010012366 -0.63496596
0.16816822 -0.071391433 -0.62526959
0.18475674 -0.00065632799 -0.58997619
0.17379236 -0.063016385 -0.61288142
0.17827913 -0.036459669 -0.60299832
0.19031262 -0.020146301 -0.57881409
0.20170212 -0.076385707 -0.57761675
0.17411229 -0.0039538736 -0.61217612
0.17895521 -0.016564013 -0.60150898
0.18322966 0.0026000184 -0.60478723
0.18231703 -0.034840629 -0.59410423
0.17064393 -0.0045288308 -0.61981571
0.16337959 -0.037785977 -0.63589031
0.16876167 -0.07455802 -0.63181973
0.1785294 0.0047155316 -0.62257725
0.16919942 -0.042398069 -0.62299788
0.19076112 -0.04755168 -0.57876271
0.18694125 -0.077485152 -0.6020667
0.19933295 -0.077972174 -0.57786351
0.1844264 -0.042374019 -0.58945811
0.1646916 -0.0062183496 -0.63786262
0.19904508 -0.057390604 -0.57789749
0.18131122 -0.013621042 -0.59631944
0.1830871 -0.030822903 -0.59240794
0.1821855 -0.081243761 -0.62575525
0.18244147 -0.041983474 -0.59383023
0.16408992 -0.066294342 -0.63425261
0.1836904 -0.076074049 -0.60426635
0.18200201 -0.058956098 -0.59479833
0.19236746 -0.074978136 -0.58130133
0.19275668 0.0024634604 -0.58332253
0.16602153 -0.041811366 -0.6398412
0.16554196 -0.055363998 -0.63105416
0.18546973 -0.058683004 -0.58716017
0.18219025 -0.070999347 -0.59438384
0.16454239 -0.062985167 -0.63762206
0.17552054 -0.0077274907 -0.60907423
0.20249289 0.0076112254 -0.5799737
0.18603191 0.0037208665 -0.60255516
0.18886934 -0.018913707 -0.5796715
0.18024084 -0.048271868 -0.59867752
0.19377992 -0.074947208 -0.57844311
0.20018488 -0.067176193 -0.57777673
0.18868062 0.00049711688 -0.58538806
0.18131234 -0.0012439408 -0.59631687
0.20041132 -0.024319595 -0.57775956
0.168191 -0.013238288 -0.64309555
0.16891986 -0.012890943 -0.6236133
0.17186731 -0.062803879 -0.61712164
0.18543042 -0.036179222 -0.58724648
0.20109785 -0.064322844 -0.57768208
0.1876041 -0.042690814 -0.58245867
0.16680518 -0.0092051765 -0.62827122
0.16339859 -0.062549964 -0.63591117
0.16578715 -0.06354823 -0.6305142
0.18461232 0.0055897734 -0.61225212
0.17335847 -0.074327573 -0.62088436
0.19585857 -0.0005410437 -0.57823884
0.20279282 -0.065514982 -0.57750511
0.19012751 -0.080385976 -0.60524637
0.17217267 -0.0021747185 -0.6164484
0.18599607 -0.044163484 -0.58600068
0.19761953 -0.023502368 -0.57805181
0.17288819 -0.05657655 -0.61487293
0.1636589 -0.012133928 -0.63520139
0.16847914 -0.064286552 -0.64351261
0.17198002 -0.072142057 -0.64874816
0.19822723 0.0011863022 -0.57799208
0.18821408 -0.047886122 -0.58111519
0.18788567 -0.0020414563 -0.58183807
0.18748379 -0.00073911482 -0.58367836
0.18432292 -0.067069426 -0.58968627
0.18958056 0.0054425672 -0.60079122
0.19035 -0.076678082 -0.59172118
0.1952578 -0.019666223 -0.57829869
0.17212456 -0.06517031 -0.61655498
0.18655449 0.007933029 -0.61621171
0.19528735 0.0030140392 -0.57968384
0.17035767 -0.0015814542 -0.64634126
0.16530651 -0.037309103 -0.63877296
0.17292678 -0.058782049 -0.61478794
0.16731568 -0.048102636 -0.62714714
0.16483614 -0.052568141 -0.63806468
0.17269138 -0.0326581 -0.6153062
0.18555602 -0.026751297 -0.58696973
0.17155522 0.0021329047 -0.62885994
0.17125444 -0.037529252 -0.64767134
0.16619626 -0.034982376 -0.62961274
0.16844903 -0.027862184 -0.64347684
0.19660714 -0.068172641 -0.57814962
0.16480018 -0.042984758 -0.63801384
0.17490862 -0.05112499 -0.61042261
0.19238909 -0.0064023267 -0.57859957
0.20161963 0.0060879011 -0.57763922
0.17762315 -0.0087490175 -0.60444295
0.19712415 0.0059557585 -0.58597946
0.16946149 -0.040360637 -0.62242061
0.19223827 -0.03096723 -0.57861155
0.16437528 -0.056707617 -0.63362396
0.16416579 -0.056439396 -0.63706064
0.18083523 -0.024266612 -0.597368
0.16961083 -0.017970927 -0.64521801
0.16999371 -0.027664497 -0.62124813
0.20366684 0.0015876074 -0.57742476
0.17014754 -0.036382888 -0.64601511
0.16830403 -0.034271725 -0.64325798
0.20202926 -0.022960022 -0.5775907
0.16449627 -0.0085368212 -0.63756967
0.17810026 0.0070459084 -0.63171482
0.19350883 -0.077924006 -0.58914351
0.16338298 -0.02122853 -0.63580924
0.18832737 -0.078672253 -0.60318679
0.17440176 -0.034031644 -0.61153877
0.17397147 0.0043395772 -0.63129514
0.17796026 -0.073625341 -0.60827959
0.20198271 -0.061766069 -0.57759023
0.16739838 -0.008169841 -0.64191151
0.1704573 -0.078782998 -0.64646757
0.17061089 -0.041728444 -0.6198889
0.18240099 -0.005701222 -0.59391898
0.19873548 -0.010005675 -0.57793683
0.1784732 -0.0094173979 -0.60257053
0.16738367 -0.075355366 -0.63765794
0.17838737 -0.054229721 -0.60276008
0.18977408 -0.049960349 -0.57886523
0.1773205 -0.075609401 -0.61666358
0.17115378 -0.020681793 -0.61869282
0.19631766 0.0076115867 -0.59357685
0.17580035 0.0026906217 -0.62146997
0.1983894 -0.070109367 -0.57796347
0.16910589 -0.065929651 -0.62320417
0.20097025 -0.052186131 -0.57769775
0.17023534 -0.012737861 -0.62071574
0.16544153 -0.050682511 -0.6312753
0.18319722 -0.07181184 -0.59216583
0.16499437 -0.030424191 -0.63226002
0.1707541 -0.039045192 -0.61957335
0.18555072 -0.077971235 -0.60683835
0.18275014 0.0035892506 -0.60932112
0.16545151 -0.0011441037 -0.63125277
0.19286633 -0.078093261 -0.59115374
0.18687116 -0.070265546 -0.58407342
0.18464114 -0.017340992 -0.58898479
0.17064197 -0.042728033 -0.64675432
0.18861128 -0.021448806 -0.58024001
0.20447776 -0.037747774 -0.57733393
0.16505706 -0.034969375 -0.63840055
0.17070079 -0.079254292 -0.64405799
0.1965573 -0.08160004 -0.59535199
0.17011526 -0.020512305 -0.62098032
0.18214348 -0.065480515 -0.59448683
0.17687616 -0.020269908 -0.6060884
0.19491777 0.008259696 -0.59893864
0.20013934 0.0035721085 -0.57779312
0.18874376 -0.081124298 -0.61088991
0.16959605 -0.0046375655 -0.64520073
0.18222956 -0.063220672 -0.59429717
0.17600168 0.0061246124 -0.63309854
0.17025489 -0.065167248 -0.6461693
0.19306082 -0.015449231 -0.5785284
0.20008177 -0.030382933 -0.57779408
0.17534508 -0.071415305 -0.60946143
0.16999747 -0.04794424 -0.62124014
0.20008592 -0.080733694 -0.58453411
0.17186806 -0.058354974 -0.61711997
0.19802123 -0.079980671 -0.58643454
0.18961085 -0.07260704 -0.57903761
0.17509979 -0.048920043 -0.61000144
0.16760615 -0.025994383 -0.6422165
0.17143667 -0.047574699 -0.61807001
0.16337049 -0.0074934643 -0.63583666
0.1655407 -0.064972401 -0.63911575
0.18326636 -0.006396729 -0.59201288
0.18710022 0.00022171071 -0.58790094
0.20257272 -0.011815392 -0.57753623
0.19659054 -0.025576795 -0.57815874
0.19817969 -0.066294327 -0.577986
0.19558325 -0.065197401 -0.57825696
0.16722472 -0.00039425032 -0.6295144
0.16541177 -0.036399234 -0.63134062
0.18543261 -0.029078016 -0.58724159
0.18027776 -0.031811666 -0.59859598
0.19664335 -0.036632411 -0.5781514
0.18899819 -0.073255152 -0.58266538
0.17456385 -0.040673353 -0.61118186
0.18665159 -0.040118206 -0.58455676
0.17231268 -0.069991037 -0.61614072
0.18117628 -0.011411939 -0.59661663
0.17402658 -0.02807782 -0.61236513
0.16587956 -0.0099598644 -0.6396386
0.18192007 -0.016784161 -0.59497839
0.17996454 -0.050263148 -0.59928608
0.17769183 -0.023983175 -0.6042918
0.20105219 -0.079430625 -0.57782483
0.18673712 -0.027875595 -0.58436823
0.1804629 -0.044896279 -0.59818828
0.1740182 -0.076145582 -0.62582231
0.16599099 -0.062479272 -0.63979
0.17513055 -0.079669453 -0.63576019
0.19278114 -0.0561525 -0.5785507
0.1721749 -0.050831489 -0.64904702
0.17079343 0.0024096048 -0.63151062
0.20467311 -0.060609054 -0.57730997
0.17334428 -0.021734117 -0.61386794
0.19731092 -0.072186276 -0.57807541
0.18823819 -0.041194424 -0.58106202
0.18990576 0.0027257754 -0.59052426
0.18015581 -0.034298986 -0.59886461
0.18484624 0.0048527215 -0.60914582
0.17021115 -0.014364649 -0.64611757
0.18649459 -0.079291977 -0.60940242
0.18473464 -0.052292604 -0.58877921
0.16808842 -0.022974852 -0.62544483
0.19275045 -0.065398857 -0.57855231
0.17658815 -0.029489497 -0.60672289
0.18351904 -0.079683259 -0.61733198
0.19034149 -0.079806253 -0.60273707
0.17598234 0.0019594815 -0.61849886
0.18290751 0.0065660388 -0.61943918
0.17714167 -0.034912426 -0.60550368
0.16511226 -0.040460777 -0.63848138
0.18823451 -0.081516907 -0.6133917
0.16771263 -0.071144328 -0.64236343
0.17704998 -0.032833938 -0.60570574
0.16691977 -0.011643785 -0.64119422
0.19476166 -0.07944268 -0.59172285
0.16816723 -0.010705999 -0.64306092
0.19361304 -0.070429727 -0.57846147
0.17223471 -0.077195078 -0.63344026
0.17553532 -0.041171934 -0.60904205
0.18729763 -0.016476972 -0.58313346
0.16683394 -0.037315954 -0.62820822
0.17013562 -0.073995717 -0.62681657
0.19135192 -0.012243716 -0.5787071
0.19586092 0.0044223079 -0.58337116
0.17595215 -0.075263061 -0.61846006
0.19797558 -0.01790997 -0.57801461
0.20243065 -0.044665966 -0.57754678
0.18258147 -0.0083224764 -0.59352148
0.16847733 -0.06266436 -0.62458861
0.19458054 -0.037465937 -0.57836628
0.19850716 -0.020416819 -0.57795894
0.17563471 0.00060622091 -0.6145072
0.19281715 -0.0029656133 -0.57855564
0.17135136 -0.039597411 -0.64781648
0.19158092 -0.079214111 -0.59792536
0.1791985 -0.0037436339 -0.60097289
0.17661977 -0.022476781 -0.60665321
0.16727725 -0.064797327 -0.64171416
0.16960275 -0.029806387 -0.64520216
0.19051979 -0.014715741 -0.57879341
0.17406672 -0.070800394 -0.61227715
0.18096882 -0.071564153 -0.59707427
0.18993409 -0.059638262 -0.57884687
0.18122134 -0.053589966 -0.59651786
0.18106867 -0.04648263 -0.59685397
0.1887041 -0.034103289 -0.58003569
0.16810037 -0.042941131 -0.64295065
0.16915372 0.0018675682 -0.63321686
0.19300969 0.0075018276 -0.60047728
0.18559085 -0.0045890869 -0.58689278
0.16819456 0.0040431712 -0.64297771
0.16720028 -0.054802567 -0.64160073
0.20467351 -0.021572834 -0.57731515
0.16463038 -0.0059071602 -0.63306147
0.16806576 0.0024780598 -0.63775933
0.18500248 -0.022430483 -0.58818895
0.18408106 -0.026567465 -0.59021854
0.18665516 -0.067040093 -0.58454907
0.18122895 -0.0079882359 -0.59650064
0.18697751 -0.056014158 -0.583839
0.17423779 -0.047800444 -0.61190015
0.19866276 -0.062717311 -0.57793629
0.16500376 -0.067118555 -0.63831168
0.16433731 -0.05991536 -0.63731623
0.20208052 -0.013867211 -0.57758713
0.20163494 -0.054216973 -0.57762802
0.17219397 -0.075314075 -0.62691736
0.18099764 -0.020273481 -0.5970102
0.18608432 -0.08056052 -0.61476558
0.1902779 -0.077999033 -0.59652382
0.18656074 -0.063160665 -0.58475709
0.16438392 -0.0012625873 -0.63360435
0.18548672 -0.014616445 -0.58712226
0.18001419 -0.07495147 -0.60841739
0.19085556 -0.044229195 -0.57875341
0.18679112 -0.053732492 -0.58424956
0.18291761 -0.0040424848 -0.59278101
0.16489142 -0.017535938 -0.63815802
0.19908494 -0.073287547 -0.57789028
0.19553554 -0.029327119 -0.57826811
0.18673675 -0.0029959015 -0.58436882
0.17520952 -0.072914243 -0.6118387
0.16953233 -0.074128613 -0.6450851
0.17811766 -0.061472941 -0.60335422
0.16668789 -0.069013789 -0.62853026
0.19162348 -0.07143122 -0.57866865
0.1909472 -0.061954059 -0.57874089
0.17514928 -0.0096339872 -0.60989201
0.18045679 -0.0097098174 -0.59820139
0.19012186 -0.030427177 -0.57883221
0.16996601 -0.024738397 -0.64574713
0.18458256 -0.045956239 -0.58911413
0.179317 -0.032958832 -0.60071218
0.18220383 0.0055910964 -0.61756176
0.18149059 0.0017364156 -0.60558188
0.17081307 -0.0070287748 -0.61944318
0.18004082 -0.073129565 -0.60195392
0.18259361 -0.018449334 -0.59349483
0.16528203 -0.013662273 -0.63162625
0.16851945 -0.0068802494 -0.6435892
0.17197506 -0.0013018548 -0.64876121
0.1757943 -0.020214047 -0.60847139
0.1672041 -0.053116877 -0.62739301
0.18630284 -0.012623977 -0.58532459
0.18661541 -0.08001826 -0.61168957
0.16951738 -0.017990455 -0.62229723
0.16935492 -0.060917668 -0.62265557
0.18597101 -0.019686639 -0.58605558
0.19631559 -0.040679093 -0.5781849
0.16483171 -0.073763922 -0.63805193
0.17129509 -0.036674146 -0.61838174
0.16996112 -0.033939134 -0.62132001
0.1811763 -0.065271735 -0.59661716
0.18724726 -0.058721874 -0.58324486
0.16801423 -0.073382132 -0.64281392
0.19035281 -0.036264289 -0.57880723
0.16607031 -0.07060989 -0.63990629
0.20237382 0.004124051 -0.57756013
0.20403329 -0.01570484 -0.5773831
0.1790297 -0.035390098 -0.60134506
0.16856748 -0.037105195 -0.64365125
0.16665646 -0.057051063 -0.64078647
0.20130169 -0.040205494 -0.57766521
0.176597 -0.061767288 -0.60670376
0.1768821 -0.055720128 -0.6060757
0.16604072 -0.015720172 -0.62995511
0.16936994 -0.055920232 -0.62262237
0.19596301 -0.063002631 -0.57821774
0.18120016 -0.018147789 -0.59656411
0.18338671 -0.021242207 -0.59174794
0.16340822 -0.017754646 -0.63593918
0.17195001 -0.0039764927 -0.64872277
0.17499813 -0.061069407 -0.6102255
0.18748824 -0.029206935 -0.58271378
0.17338771 -0.043225344 -0.61377251
0.16790503 -0.01109039 -0.62584865
0.19963419 -0.079305157 -0.58050704
0.17442805 -0.01532477 -0.61148071
0.19757238 -0.075489625 -0.57804757
0.18383284 -0.044663507 -0.59076554
0.18457557 -0.0082754651 -0.58912915
0.18836328 -0.059636969 -0.58078665
0.17370766 -0.072675049 -0.61430585
0.19590773 -0.021951929 -0.57823056
0.16745885 -0.060050432 -0.6419875
0.18188991 -0.045728508 -0.59504509
0.17137779 -0.013890761 -0.64786315
0.20479919 -0.045582101 -0.57729971
0.19319209 -0.068053856 -0.57850581
0.17188378 -0.039161965 -0.6170851
0.18744552 -0.038589478 -0.5828079
0.20128307 0.008249904 -0.58488369
0.18751675 -0.050006118 -0.58265114
0.18338862 -0.037468534 -0.59174389
0.1749872 0.0066575161 -0.63720649
0.18801361 -0.062845916 -0.58155686
0.17069629 -0.060952947 -0.61970103
0.17303386 -0.050698854 -0.61455202
0.16426454 -0.063460283 -0.63386792
0.17945479 0.0070361211 -0.62869692
0.18857838 0.0064346092 -0.6064862
0.1948799 -0.081047855 -0.59710538
0.19016621 0.0067501189 -0.6040979
0.17417939 -0.068659842 -0.61202902
0.17111397 -0.053868882 -0.61878085
0.179472 -0.066190913 -0.60037124
0.19775616 -0.012886008 -0.57803839
0.18159235 -0.073170394 -0.59868002
0.1827521 -0.057172682 -0.59314615
0.17642942 -0.0014509078 -0.60707223
0.18817006 -0.051968608 -0.58121216
0.16507959 -0.048372962 -0.63207251
0.1673573 -0.073121041 -0.62986135
0.19189449 -0.022222918 -0.57864887
0.1864374 0.0066623255 -0.61200261
0.18530127 -0.033153646 -0.58753091
0.17178576 0.0071144234 -0.64586437
0.16466403 -0.061201051 -0.63298798
0.17404626 -0.018191572 -0.61232167
0.20241903 -0.025702404 -0.57754952
0.18331489 -0.042264562 -0.59190637
0.1682508 -0.0409583 -0.62508732
0.1769387 0.0079213995 -0.6373511
0.18770522 -0.02318557 -0.58223575
0.16524288 -0.058288235 -0.63171297
0.17667776 -0.024859603 -0.60652548
0.17988175 -0.072027519 -0.59946871
0.16640607 -0.048645142 -0.62915075
0.18183783 -0.024271905 -0.59515965
0.1835354 -0.076755151 -0.6070022
0.20477247 -0.051027182 -0.57730144
0.17307699 -0.0021947299 -0.61445653
0.18713972 -0.073205888 -0.58658576
0.18017909 -0.002216391 -0.598813
0.19824174 0.0046214708 -0.57882714
0.16755223 -0.06934242 -0.62662643
0.17843726 0.0059779314 -0.62721813
0.17673346 -0.040094245 -0.60640299
0.17767361 -0.040644273 -0.60433209
0.18342282 -0.074490659 -0.59928942
0.18646303 -0.030245567 -0.58497196
0.19543922 -0.033797808 -0.57827741
0.18349142 -0.073293827 -0.59493095
0.18018566 -0.029407607 -0.59879887
0.18235275 -0.037970945 -0.59402561
0.17045444 0.0012422488 -0.64648712
0.17653306 -0.073301308 -0.61028409
0.17719737 -0.066198096 -0.60538143
0.1772337 0.0010743885 -0.61263102
0.18250015 -0.010420281 -0.59370065
0.20459881 -0.027520388 -0.57732171
0.18362877 -0.0086248079 -0.5912146
0.1745753 -0.077674881 -0.62997139
0.18035135 -0.015264459 -0.59843367
0.19343387 -0.0004775651 -0.57849175
0.16992566 -0.045732901 -0.62139827
0.19245182 -0.039459005 -0.57858789
0.16697928 -0.019485846 -0.64128077
0.19144174 -0.073690347 -0.57881314
0.18606654 -0.08131361 -0.61745226
0.18528296 -0.04852223 -0.58757138
0.18558472 -0.053718228 -0.58690679
0.20457725 -0.040648971 -0.57732344
0.1792825 -0.080798246 -0.63058317
0.17620152 -0.036366999 -0.60757458
0.19178897 -0.0090738935 -0.5786621
0.19422533 -0.047979314 -0.57840151
0.18161394 -0.032797351 -0.59565288
0.17790678 -0.080568507 -0.63280576
0.16342632 -0.0025547426 -0.63571364
0.16564482 -0.019659914 -0.63082719
0.16598301 -0.059441201 -0.63008273
0.18311356 -0.054666974 -0.59234989
0.20436858 -0.048457645 -0.577344
0.20081529 -0.0012831171 -0.5777216
0.17763674 0.001952691 -0.61483091
0.17188531 -0.054124326 -0.64861256
0.16697644 -0.062251221 -0.62789458
0.16757432 -0.022075688 -0.64217007
0.17500301 -0.035884425 -0.61021447
0.16866344 -0.029152341 -0.62417829
0.18878619 -0.025261059 -0.57985479
0.19258763 -0.054021243 -0.5785712
0.18395478 -0.03139111 -0.59049678
0.1684723 -0.015298311 -0.62459916
0.16748074 -0.016674429 -0.64203179
0.16911505 -0.020566884 -0.62318349
0.16792209 -0.03626322 -0.62581134
0.1889507 -0.05423902 -0.57949275
0.1651078 -0.011481341 -0.63200998
0.17137626 -0.064670116 -0.64784729
0.20250967 -0.06800586 -0.57753414
0.18162094 -0.075275704 -0.60601807
0.17722252 -0.060277559 -0.60532594
0.17217499 -0.041464705 -0.61644369
0.17925626 -0.014035426 -0.60084581
0.16859573 -0.052715924 -0.62432766
0.17237201 0.0037661984 -0.63280255
0.19312985 -0.029007571 -0.57851893
0.18497413 -0.025059562 -0.58825147
0.16773596 -0.0005447052 -0.64241928
0.16779999 -0.0054316996 -0.62607998
0.18796459 0.0022261883 -0.59304363
0.20087548 -0.0041118595 -0.5777148
0.17053469 -0.067521028 -0.62005705
0.17204842 -0.060453344 -0.6167227
0.19637021 -0.047973007 -0.57817793
0.17009169 -0.040444087 -0.64593035
0.18437125 -0.079205468 -0.61377519
0.20476982 -0.0041145002 -0.57730854
0.17957632 -0.00023060915 -0.60288346
0.18536438 -0.066100046 -0.58739233
0.20112562 -0.01022394 -0.5776875
0.20053492 -0.0066045364 -0.57774985
0.17234832 -0.053256094 -0.61606205
0.16726795 -0.033041112 -0.64170849
0.19276235 -0.035000574 -0.57855624
0.17804843 -0.065858118 -0.6035068
0.16511574 -0.026393842 -0.63849092
0.16882297 -0.037722185 -0.62382698
0.16495311 -0.0027079592 -0.63825512
0.19348796 -0.062304143 -0.57847601
0.17915231 -0.029795591 -0.60107493
0.17803402 -0.012715881 -0.60353798
0.18186843 -0.05629253 -0.59509254
0.18774989 -0.036613412 -0.58213758
0.16827556 -0.04925498 -0.6250329
0.17374405 -0.080094002 -0.64030659
0.18809019 -0.0097026508 -0.5813877
0.19798109 0.0058770459 -0.58381522
0.17670861 -0.04936133 -0.60645777
0.16621134 -0.01795695 -0.64013243
0.19621344 0.0067526558 -0.59078687
0.17871693 -0.022518385 -0.60203385
0.17880286 -0.025143681 -0.60184461
0.1651029 -0.024129165 -0.63847244
0.18701546 -0.045478713 -0.58375531
0.18617767 -0.00096102204 -0.58577526
0.16628388 -3.0231138e-05 -0.6328665
0.19080043 -0.069378592 -0.57875496
0.17572424 0.0039482405 -0.6260587
0.19711928 -0.077610627 -0.58008933
0.16758893 -0.019036863 -0.62654495
0.17871556 -0.038876038 -0.60203707
0.18121316 -0.060514808 -0.59653592
0.18495008 -0.072194196 -0.58830488
0.19228545 -0.042240717 -0.5786047
0.19617017 -0.014572426 -0.57820362
0.180509 0.0048634978 -0.6187371
0.1808058 -0.00020770269 -0.60025579
0.16875082 -0.0056005013 -0.62398559
0.17646229 -0.078174137 -0.62757015
0.20471516 -0.018006349 -0.57731152
0.17972746 -0.062901117 -0.59980839
0.16887963 -0.044561915 -0.62370235
0.17438479 -0.057011507 -0.61157644
0.16967392 -0.068015203 -0.62195301
0.19131891 -0.051987156 -0.57870382
0.16445211 -0.014917124 -0.63750172
0.19585076 -0.017664574 -0.57823706
0.18423444 -0.038187943 -0.58988088
0.18492371 0.00060791266 -0.59405267
0.16653402 -0.039494954 -0.62886882
0.17202765 -0.0088024633 -0.64883721
0.17202207 -0.048435617 -0.64881909
0.16425969 -0.022598211 -0.63387811
0.20103121 -0.080489539 -0.58159363
0.19099277 -0.081526026 -0.60734832
0.17977852 -0.046338838 -0.5996958
0.18885802 -0.045604814 -0.57969677
0.19867034 -0.054917015 -0.57793701
0.18518943 -0.074700139 -0.59613454
0.17714374 -0.0042078136 -0.60549891
0.18471487 -0.00396212 -0.58882225
0.16429707 -0.048347224 -0.6372596
0.16428272 -0.069840178 -0.63382804
0.19816709 -0.080883771 -0.58928818
0.18800044 -0.055423893 -0.58158582
0.20377108 -0.069638893 -0.57740229
0.17048153 -0.063842371 -0.62017411
0.16358916 -0.032317378 -0.63620549
0.16689004 -0.059806466 -0.6280849
0.20474313 -0.030602831 -0.57730609
0.16831554 -0.056236491 -0.62494487
0.16369319 -0.005029107 -0.63636941
0.18057221 0.0082114087 -0.63036734
0.16502231 -0.0029987651 -0.6321981
0.16669495 -0.075552322 -0.63986737
0.17288405 -0.027075103 -0.61488169
0.18853447 -0.037839402 -0.58040941
0.16880143 -0.024147868 -0.62387431
0.18022683 -0.057675205 -0.59870845
0.17098707 -0.058066867 -0.61906046
0.16420725 -0.032033969 -0.6339938
0.20136428 -0.027545966 -0.57765985
0.16670102 -0.018695729 -0.62850076
0.19566175 -0.070260853 -0.57824779
0.17934762 -0.075802281 -0.61287653
0.16770779 -0.061180841 -0.62628365
0.18961787 -0.032632779 -0.57888436
0.16970482 -0.038267139 -0.62188458
0.18950355 -0.00014431891 -0.58132046
0.17147827 -0.025604529 -0.64800924
0.17205609 -0.081445806 -0.64877683
0.16956538 -0.014936696 -0.62219143
0.17050175 -0.070024818 -0.62012959
0.17544232 0.0010936341 -0.6166445
0.1822044 -0.053768933 -0.59435248
0.19442081 0.0061149858 -0.59249365
0.18418831 -0.035543032 -0.58998245
0.16379605 -0.041119881 -0.63489962
0.17930284 -0.0062218872 -0.60074317
0.18645941 -0.03260155 -0.58497995
0.16846749 -0.069169059 -0.6246103
0.20428288 -0.074919313 -0.57734793
0.17939186 -0.0083638253 -0.60054708
0.20387453 0.0077559943 -0.57743931
0.16593732 -0.051833875 -0.63971221
0.20071802 -0.042664763 -0.57772565
0.18654931 -0.037170708 -0.58478194
0.17415655 -0.00091260893 -0.61242378
0.16987438 -0.045414135 -0.64560485
0.19403452 -0.040855303 -0.57842267
0.16951257 -0.022763032 -0.6223079
0.17529351 -0.026168495 -0.60957456
0.17491585 -0.04555811 -0.61040652
0.17021278 -0.068073466 -0.64610529
0.18619911 -0.035056829 -0.58555329
0.20478356 -0.013701534 -0.5773052
0.19984078 -0.036795553 -0.5778181
0.16903393 -0.046787612 -0.62336242
0.18353592 -0.012542442 -0.59141922
0.16706051 -0.016690331 -0.62770885
0.18105555 -0.05692444 -0.59688306
0.16922946 -0.011591498 -0.6446498
0.16963936 -0.021263357 -0.64525962
0.17498279 -0.063824445 -0.61025929
0.16625942 -0.056631912 -0.62947387
0.17201863 -0.03224929 -0.64881569
0.16455132 -0.020622743 -0.63323581
0.17387354 -0.036136128 -0.61270225
0.16961721 -0.0025609941 -0.62207723
0.16765246 -0.031779606 -0.62640512
0.18367237 -0.046741851 -0.59111899
0.18895318 -0.0075566964 -0.57948685
0.16957498 -0.076357685 -0.64514822
0.17918207 -0.0013665177 -0.60100913
0.18420568 -0.062506504 -0.58994442
0.16499156 -0.020433173 -0.63830703
0.1706014 -0.0024596318 -0.61990941
0.20400405 -0.034591448 -0.57738346
0.1678912 -0.043469138 -0.62587941
0.20444834 -0.007692656 -0.57734138
0.1666919 -0.027488425 -0.6408484
0.16353792 -0.026657419 -0.63546807
0.16495645 -0.050233014 -0.63824534
0.16645214 -0.039317235 -0.64048612
0.1662893 -0.013194006 -0.62940747
0.16426133 -0.022526233 -0.63721395
0.18029706 -0.060858201 -0.59855378
0.1645585 -0.046575431 -0.63322026
0.17218643 -0.015565923 -0.61641824
0.19820112 -0.038079724 -0.57798874
0.16443397 -0.029902577 -0.63746995
0.17675221 -0.042309813 -0.60636169
0.19396117 0.0068736654 -0.59617323
0.17796922 -0.021038136 -0.60368079
0.16406924 -0.054474451 -0.63429803
0.17829633 -0.075670891 -0.61473036
0.18666847 -0.025207598 -0.58451939
0.16646332 -0.024380062 -0.6405074
0.16975006 -0.0090544214 -0.64542955
0.20058432 -0.020121831 -0.57774198
0.18749237 -0.0047681793 -0.58270442
0.20388919 -0.07864856 -0.57738823
0.17829847 -0.01500246 -0.60295552
0.17220648 -0.061573997 -0.64909053
0.1650397 -0.053147539 -0.63216043
0.17152138 -0.056301445 -0.6480673
0.19593336 -0.060163751 -0.57822138
0.17644194 -0.044369034 -0.60704511
0.19877702 -0.002849736 -0.57793391
0.19550908 -0.080480434 -0.59372485
0.1642437 -0.025159437 -0.63391346
0.18650334 -0.073516183 -0.58907837
0.19501574 -0.0072261468 -0.57832539
0.18734168 0.0029164434 -0.59684229
0.18973206 -0.022508826 -0.57887423
0.18196705 -0.012193847 -0.5948748
0.17187276 -0.022827799 -0.61710918
0.18264729 -0.022722909 -0.59337664
0.17888951 -0.070799366 -0.60165429
0.17875254 -0.047375899 -0.60195565
0.17110698 -0.062459718 -0.64744514
0.18591289 -0.068306819 -0.58618408
0.19898185 -0.016030965 -0.57790995
0.16413663 -0.010532024 -0.63703108
0.16719735 -0.05055004 -0.64159751
0.17098802 -0.051504645 -0.64727086
0.17812297 -0.052258972 -0.60334247
0.17218773 -0.011859506 -0.64907563
0.17404826 -0.008523535 -0.61231714
0.18277495 0.0073477463 -0.6224792
0.20317185 -0.04216931 -0.57746994
0.19125797 0.0039245505 -0.59175998
0.16418725 -0.0039871796 -0.63403749
0.17391902 -0.054786518 -0.61260235
0.17794231 0.0032394568 -0.61868143
0.17523625 -0.075501159 -0.62087399
0.17179157 -0.015877772 -0.64848143
0.20220961 -0.038162231 -0.57757092
0.17776312 -0.081585877 -0.63669878
0.17609237 -0.00061179826 -0.60921735
0.18812223 -0.079160802 -0.6053561
0.16720591 -0.0622591 -0.6416083
0.20226094 -0.0084668379 -0.57756937
0.17985539 -0.078119308 -0.61990356
0.17183462 -0.042890418 -0.64854008
0.17866085 -0.057831738 -0.60215771
0.17216478 0.0078041353 -0.64904827
0.191193 0.0066548721 -0.60150141
0.17430615 -0.025929315 -0.61174929
0.16599509 -0.007401668 -0.63981235
0.18148147 -0.02870225 -0.59594458
0.18113956 0.0039019352 -0.61396784
0.17177427 -0.069445446 -0.6484412
0.19971232 -0.081141144 -0.58678937
0.16564368 -0.014309919 -0.63928437
0.1641209 -0.018685117 -0.63418382
0.18877839 -0.0016530892 -0.57987171
0.1787964 -0.074675664 -0.61013025
0.17135823 -0.04532484 -0.6182428
0.16628367 -0.035610162 -0.64023525
0.19487777 -0.056239698 -0.57833213
0.19829249 -0.034876142 -0.5779798
0.17219657 -0.023696199 -0.64908457
0.18148826 -0.069548264 -0.5959301
0.18048538 -0.0064736172 -0.59813833
0.17007884 -0.0749401 -0.63026154
0.17700881 -0.076329127 -0.61988032
