# .PCD v0.7 - Point Cloud Data file format
VERSION 0.7
FIELDS x y z
SIZE 4 4 4
TYPE F F F
COUNT 1 1 1
WIDTH 1284
HEIGHT 1
VIEWPOINT 0 0 0 1 0 0 0
POINTS 1284
DATA ascii
0.032503977 -0.16558115 0.027182424
0.034813799 -0.16366421 0.037419178
0.031468775 -0.18019052 0.033374719
0.049276166 -0.18722786 0.05396919
0.026554372 -0.17071548 0.062771328
0.066900156 -0.18534535 0.006648202
0.041599698 -0.16954274 -0.00061452587
0.054100022 -0.16367261 0.09607169
0.055881638 -0.16366424 0.019933986
0.064606972 -0.18722787 0.0238008
0.034138404 -0.17793623 0.017405745
0.028567649 -0.18722786 0.076668277
0.055523127 -0.16860977 0.086513713
0.059030473 -0.17160583 0.062957443
0.020717412 -0.18367642 0.097685628
0.03115385 -0.18709028 0.035258237
0.059741147 -0.16366425 0.029923705
0.036666282 -0.18722786 0.11170423
0.039016798 -0.17722254 0.13130707
0.035573147 -0.17449933 0.0088235131
0.057330851 -0.16366425 0.038758714
0.058952294 -0.16759318 -3.9930688e-05
0.056264296 -0.18722786 0.074049212
0.032302149 -0.18722786 0.11649384
0.061147243 -0.16919923 0.048740711
0.052130744 -0.16366424 0.072454967
0.023577329 -0.18412298 0.080578543
0.032042645 -0.17232767 0.029942017
0.055024642 -0.17476517 0.089861684
0.072370239 -0.17831698 -0.0091196597
0.02055544 -0.16366422 0.10792555
0.036095254 -0.18430054 0.0078333262
0.0620602 -0.16599987 0.0057104183
0.040772364 -0.17294 0.0006552157
0.038096748 -0.16985494 0.11010268
0.048249155 -0.16366422 0.051808417
0.033686209 -0.16366424 0.10025249
0.041571975 -0.16366422 0.015083926
0.047848716 -0.18722787 0.02255905
0.031542312 -0.16372317 0.11725167
0.032601118 -0.18722786 0.077559248
0.035743691 -0.16366424 0.061678916
0.023714745 -0.16366422 0.079922058
0.055055413 -0.16366425 0.075022556
0.053289916 -0.18118331 0.10151257
0.059140034 -0.17758155 0.062221613
0.029209407 -0.18122643 0.046889517
0.032263853 -0.16366422 0.068623997
0.042606451 -0.17966594 -0.0021596199
0.041476231 -0.18232742 -0.00042503505
0.057241634 -0.18722787 0.013613653
0.029296858 -0.18024053 0.13035977
0.048576165 -0.18556954 0.0065016234
0.033666704 -0.17973468 0.020227334
0.047169093 -0.18722787 0.086568311
0.027675267 -0.16366422 0.063842326
0.022694198 -0.16366424 0.094316944
0.048454426 -0.18722787 0.047031447
0.055735365 -0.16366425 0.067063667
0.024505412 -0.17725942 0.075027406
0.044362064 -0.18722787 0.051731251
0.04228995 -0.17210607 0.11718941
0.039605856 -0.16366422 0.046338797
0.028456813 -0.18085094 0.10702298
0.047775701 -0.16366425 0.10990946
0.062231038 -0.18722787 0.033996083
0.031311996 -0.16366424 0.097701572
0.034792274 -0.16366422 0.078397587
0.040660765 -0.18722787 0.095537305
0.068082497 -0.18365291 -0.00025053974
0.05568948 -0.18420902 0.085396476
0.040628441 -0.18722787 0.074431717
0.066746928 -0.17007186 0.012446765
0.042244337 -0.18722786 0.02499423
0.05548409 -0.18169807 0.086775921
0.031629805 -0.18722786 0.087866962
0.036839318 -0.18722786 0.10134636
0.030016543 -0.18722787 0.11034373
0.017979641 -0.16775545 0.11406282
0.068201557 -0.17144954 0.006868015
0.051673748 -0.16602895 0.11236715
0.040500816 -0.16366422 0.075867243
0.040146489 -0.17572005 0.0016157618
0.062423225 -0.18678974 0.040170837
0.050779782 -0.17266546 0.11837127
0.035763029 -0.16366425 0.11763899
0.024163686 -0.16589828 0.077071749
0.061700545 -0.16641065 0.045024555
0.054171473 -0.16366424 0.030969504
0.053944957 -0.17747499 0.097113147
0.024533059 -0.18656842 0.074861579
0.039467759 -0.16366424 0.078428775
0.053772546 -0.16366424 0.035363778
0.063983493 -0.16890925 0.029691678
0.019495917 -0.18722786 0.11011609
0.044672109 -0.16366424 0.086421028
0.068080157 -0.18227226 -0.0057078581
0.056058116 -0.17565781 0.082920611
0.028684523 -0.18224601 0.050029151
0.022744795 -0.16396382 0.085559152
0.033787534 -0.18722786 0.091083333
0.027305117 -0.18711048 0.058280051
0.031760342 -0.18722786 0.094037801
0.020978369 -0.17580479 0.096125051
0.051631816 -0.18722786 0.098613612
0.051552664 -0.16366425 0.093700677
0.061615806 -0.16471034 0.010535232
0.067016751 -0.1865018 0.011199099
0.033522837 -0.16985491 0.1085449
0.043454852 -0.17051269 0.10742637
0.038706724 -0.18722787 0.06008612
0.057418883 -0.16821793 0.073781334
0.023591949 -0.17416444 0.08049158
0.029670881 -0.16366422 0.071082003
0.047180139 -0.18722786 0.078997299
0.033809312 -0.16985494 0.12515463
0.036788806 -0.16366425 0.09985806
0.061123114 -0.16366425 0.037421025
0.028357795 -0.18722787 0.096207649
0.027352788 -0.18722786 0.11629709
0.031612281 -0.18103716 0.1201117
0.036001094 -0.16366422 0.084935442
0.053303238 -0.18722786 0.053799711
0.055361308 -0.16366422 0.015736951
0.064815603 -0.18246415 -0.0043736333
0.043385722 -0.16366422 0.057737295
0.021399733 -0.17854866 0.11626329
0.044093434 -0.18722786 0.010420873
0.036604933 -0.18038605 0.0070511084
0.054679401 -0.1639663 0.011257266
0.054365806 -0.17086872 0.094286591
0.054372158 -0.18188863 0.094243944
0.066652223 -0.17499807 0.012809956
0.03554792 -0.17104343 0.0089744153
0.053606164 -0.16366424 0.061952569
0.031405315 -0.18722786 0.10405815
0.053949285 -0.18722786 0.069099441
0.058739617 -0.18276939 0.064910918
0.04131845 -0.17874652 0.12533161
0.029724263 -0.18355298 0.043809731
0.035080988 -0.17361185 0.011767469
0.018427435 -0.17350234 0.11138397
0.025560852 -0.17679662 0.068714157
0.065346517 -0.16382365 0.020537285
0.069561534 -0.16676061 0.001380677
0.058243513 -0.18179512 0.068242893
0.060639244 -0.17387515 0.052152529
0.018535562 -0.18229446 0.11598418
0.039744325 -0.1798842 0.0022329749
0.054224774 -0.16735396 0.0017392947
0.030281404 -0.16985491 0.11367016
0.050292552 -0.16366422 0.034675267
0.030353015 -0.16366422 0.044810556
0.018364303 -0.16373506 0.11176206
0.043663323 -0.1769132 -0.0037816365
0.050444055 -0.18722786 0.11081503
0.017750533 -0.17048669 0.11543311
0.057267867 -0.18031128 0.074795574
0.040468916 -0.16985494 0.10822648
0.043424517 -0.18611562 0.1184096
0.063546285 -0.16528082 0.0082908729
0.034085188 -0.16665471 0.11749948
0.048473477 -0.16366424 0.055469327
0.060308844 -0.16568062 0.054371588
0.050151121 -0.16366424 0.022622291
0.04465026 -0.18722786 0.028740721
0.038449138 -0.16366425 0.10442705
0.023330508 -0.18617627 0.11645144
0.02209324 -0.18496886 0.089455821
0.032296527 -0.16366421 0.029418474
0.046827395 -0.16366425 0.092275999
0.032936297 -0.16756855 0.024596414
0.047385372 -0.16366424 0.066269509
0.029240785 -0.18103714 0.11609772
0.034376334 -0.18139187 0.015982514
0.031566784 -0.17148104 0.032788455
0.036628019 -0.18722786 0.0091511682
0.029507579 -0.18722786 0.065448664
0.053440206 -0.18587211 0.10050317
0.030196428 -0.16366424 0.10842334
0.061764352 -0.1837441 0.044596005
0.020916902 -0.1689983 0.096493058
0.065741494 -0.17937666 0.017884463
0.042167433 -0.17689757 -0.00148585
0.041343994 -0.18722787 0.012835971
0.030479567 -0.1858221 0.039291643
0.07049159 -0.16799814 -0.0019146717
0.041781478 -0.17543763 0.12145098
0.051154923 -0.18722786 0.059241094
0.060511462 -0.16366427 0.049661368
0.044137079 -0.18722786 0.098622814
0.047019169 -0.16366424 0.11806954
0.030949919 -0.16366422 0.082309976
0.030921526 -0.17883129 0.036648221
0.031007992 -0.18436649 0.036130838
0.063336022 -0.17682418 0.034040261
0.034364924 -0.18103714 0.12260303
0.045933187 -0.16366425 0.10230172
0.046592019 -0.16366424 0.031638473
0.036836036 -0.18722786 0.016091302
0.071300074 -0.17093644 -0.0050153593
0.024160534 -0.18069126 0.077090189
0.024435051 -0.16366424 0.11641367
0.026248196 -0.17737445 0.064602673
0.067868933 -0.17955288 0.008143683
0.049377486 -0.18152489 -0.0053644152
0.048031971 -0.18722786 0.026126346
0.050416172 -0.16366425 0.11394764
0.043505535 -0.18722787 0.055581272
0.031202776 -0.17400604 0.034965858
0.044765439 -0.18722787 0.059509728
0.063806683 -0.18199639 0.030879186
0.055350505 -0.1639736 0.087673083
0.027458996 -0.16474243 0.057360113
0.036355428 -0.16366422 0.066328958
0.040785186 -0.16448839 0.11815239
0.058784403 -0.16713762 0.064610124
0.051961165 -0.18075763 0.11043681
0.033231858 -0.18722786 0.038563874
0.041386619 -0.17468865 0.12476026
0.032106772 -0.18103714 0.10777139
0.05664099 -0.18092614 0.079005875
0.043728467 -0.17268048 0.10513316
0.045132305 -0.18722787 0.074340835
0.058462918 -0.16958095 0.066769317
0.027593914 -0.17561686 0.056553084
0.067712612 -0.18362495 0.008743207
0.030774301 -0.16366424 0.094043821
0.048471339 -0.18722786 0.10471623
0.040645171 -0.16392036 0.0088054957
0.062083397 -0.17983033 0.042453218
0.033938158 -0.16366425 0.10855693
0.021204036 -0.18412918 0.094774783
0.042594887 -0.18722786 0.11063728
0.056210596 -0.18312508 0.081896499
0.056258656 -0.16366425 0.059229802
0.057784468 -0.18038127 0.071325965
0.028908208 -0.17698324 0.048691336
0.051745888 -0.1781572 0.11188263
0.029860262 -0.16366424 0.085540645
0.069843188 -0.16884954 -0.0069265626
0.053676434 -0.16670102 0.09891659
0.04872866 -0.18722786 0.093331128
0.050971538 -0.18722787 0.10649472
0.044444032 -0.16366422 0.042898886
0.036941785 -0.18722787 0.041192155
0.057470847 -0.16366425 0.023381153
0.056716919 -0.18722787 0.03387792
0.02548426 -0.1866318 0.069171816
0.024966715 -0.17867044 0.072267987
0.04761624 -0.18722786 0.10086945
0.041580193 -0.16366422 0.02317236
0.041280784 -0.18722787 0.029339772
0.033004019 -0.16366422 0.033007048
0.04135472 -0.18722786 0.11408426
0.031872306 -0.16366422 0.048078083
0.028803155 -0.16469771 0.11698475
0.065983959 -0.16609943 0.016256034
0.051846486 -0.18370733 0.0021093853
0.056441374 -0.18448439 0.0050355829
0.037012491 -0.16985492 0.12232858
0.057333391 -0.18722787 0.052677769
0.027071074 -0.18722786 0.10995426
0.063092172 -0.17916116 0.035678074
0.062354725 -0.17642923 0.040630907
0.038053326 -0.18103714 0.12459076
0.042706799 -0.18103714 0.1070087
0.048009675 -0.18390518 0.0019358885
0.034927495 -0.16366421 0.027462315
0.027371671 -0.17981997 0.057882302
0.064541146 -0.16609323 0.025946353
0.01904498 -0.17513902 0.10768995
0.053561952 -0.16366424 0.058404118
0.026699627 -0.18722787 0.093056247
0.023527509 -0.17739005 0.080876887
0.05422898 -0.18722787 0.059516966
0.048574388 -0.16686793 0.11891146
0.033038933 -0.16366422 0.043356441
0.063003995 -0.17140152 0.036270276
0.065257221 -0.18388245 0.0011550002
0.060640909 -0.16366424 0.016165132
0.033842679 -0.16366421 0.024598731
0.040704295 -0.16994984 0.13047886
0.018185727 -0.18261363 0.11282934
0.059632428 -0.1838029 0.0018323511
0.026058195 -0.18046792 0.13004413
0.035244823 -0.18722786 0.031445242
0.053012222 -0.17740709 0.10337763
0.040244967 -0.16802035 0.0014646242
0.051534083 -0.18722787 0.06775938
0.040376637 -0.18436551 0.0017695213
0.029491208 -0.16881734 0.045203984
0.04529788 -0.1722987 0.11859216
0.032193184 -0.18722786 0.054555569
0.068516836 -0.18295071 -0.0031029116
0.041932732 -0.17114627 0.12018327
0.070835769 -0.17395826 -0.0032346854
0.049327753 -0.18249488 0.11898486
0.028440818 -0.17419854 0.051487144
0.050093878 -0.16366425 0.11688863
0.037097573 -0.16985494 0.10715777
0.022072781 -0.17426658 0.089578718
0.060618956 -0.18274215 -0.0025347585
0.069097236 -0.17740546 0.003432903
0.056540564 -0.1640183 0.079680346
0.061749421 -0.18722786 0.037103292
0.058140073 -0.18722786 0.045277711
0.034028757 -0.17121986 0.018061627
0.030077474 -0.16366425 0.10361092
0.033491705 -0.17261155 0.1307686
0.0317894 -0.16366422 0.075414531
0.065383174 -0.18421228 0.020291062
0.056445152 -0.17647177 0.080321155
0.042972729 -0.1772019 0.11146702
0.036204383 -0.16366422 0.044484273
0.038523883 -0.16366425 0.11571616
0.026552662 -0.16366424 0.11179812
0.036225192 -0.18722787 0.057269402
0.037106328 -0.18722786 0.10713155
0.055837229 -0.16366425 0.070225976
0.026720708 -0.16366424 0.094518237
0.054118529 -0.16366424 0.048716355
0.030448623 -0.18013185 0.039476998
0.017692946 -0.17896089 0.11577716
0.03422831 -0.16850933 0.016867962
0.052686911 -0.18210366 -0.0036600293
0.053572815 -0.17593633 0.099612527
0.061584327 -0.17197382 0.045805119
0.036054183 -0.18103714 0.11145465
0.025767665 -0.17660157 0.12448533
0.069478743 -0.17189877 0.0019697372
0.023762878 -0.18722786 0.088597409
0.06675788 -0.1793392 0.012404753
0.063265949 -0.18221724 0.034510903
0.03072417 -0.16366422 0.058272246
0.02139386 -0.16658784 0.093640089
0.02638606 -0.17424387 0.12046968
0.048072036 -0.18722787 0.0615368
0.054992501 -0.16940297 0.090077542
0.040734041 -0.17526038 0.13022955
0.047322009 -0.18624832 0.11878941
0.036830358 -0.18722787 0.092597529
0.06108202 -0.18722787 0.02469746
0.019690696 -0.18722785 0.10521042
0.032348171 -0.17021401 0.028114438
0.023061235 -0.17526728 0.083666086
0.065837286 -0.17553875 0.017241141
0.029091412 -0.16994254 0.10290213
0.032915968 -0.1784296 0.11738554
0.02285137 -0.18721259 0.084920838
0.030942326 -0.16985492 0.11018679
0.02024704 -0.16474964 0.11615095
0.052422911 -0.18722786 0.090601437
0.026283786 -0.17947502 0.12113382
0.024752062 -0.16366424 0.09044949
0.034401249 -0.18722785 0.072235599
0.03104141 -0.16382077 0.035931103
0.069479257 -0.18105717 0.0019677805
0.038046293 -0.18722786 0.022152275
0.060650144 -0.17795706 0.052079331
0.050445132 -0.16366422 0.017813619
0.023283377 -0.16877601 0.11644685
0.042690195 -0.17543882 0.11383496
0.035706207 -0.18722786 0.088225044
0.055491753 -0.17457478 0.086724445
0.024060244 -0.17105877 0.077690512
0.038259845 -0.1663049 0.1179063
0.037412778 -0.16366422 0.075373724
0.019704398 -0.1731497 0.10374564
0.055021871 -0.18221371 0.089880303
0.030608207 -0.1718034 0.038522415
0.041272707 -0.18722786 0.078247361
0.050687518 -0.16940314 0.11899093
0.045791514 -0.18722787 0.033581596
0.028381445 -0.18722786 0.080452949
0.048642486 -0.18722787 0.01843054
0.066103496 -0.18084249 0.015453178
0.05973874 -0.16594812 0.058200568
0.055210851 -0.18722786 0.056759275
0.028082976 -0.17599863 0.05362764
0.053129531 -0.17424253 0.10258976
0.06422165 -0.18196575 0.028092135
0.036616102 -0.18103714 0.10409422
0.031224713 -0.17601371 0.11722073
0.067399174 -0.18127272 -0.00953897
0.055302851 -0.17890839 0.08799316
0.056908261 -0.16366425 0.047672357
0.020904455 -0.18044084 0.096566953
0.059212212 -0.16366424 0.013617231
0.026740838 -0.18627942 0.061655413
0.029167835 -0.17930035 0.10240586
0.021383338 -0.17937392 0.093702488
0.070411444 -0.18117525 -0.0016073205
0.0195147 -0.17569366 0.10488023
0.066126741 -0.16869245 0.015297088
0.020361332 -0.18648003 0.11616211
0.054118846 -0.16848403 0.095945247
0.035898581 -0.16366419 0.016507033
0.026895223 -0.17112663 0.11716335
0.059796955 -0.18600896 0.057809561
0.03369699 -0.18722786 0.041730057
0.027322568 -0.17124328 0.11438836
0.031144485 -0.16366422 0.066127181
0.031362519 -0.16985494 0.12188415
0.02507033 -0.16604835 0.071648456
0.041039165 -0.17415497 0.12767228
0.027722795 -0.18224838 0.055781882
0.063397638 -0.16366425 0.022559339
0.02280432 -0.18184444 0.085202545
0.054311924 -0.17440736 0.094648503
0.024056405 -0.17412281 0.07771337
0.04946883 -0.18722787 0.065916687
0.019989695 -0.17855281 0.10203883
0.061887961 -0.16919661 0.043765835
0.059310827 -0.18722787 0.017517082
0.017999526 -0.17582546 0.11394347
0.039602436 -0.16985494 0.11935978
0.037726615 -0.18414611 0.0053296275
0.046155065 -0.16366422 0.045674451
0.035191111 -0.18286058 0.011108749
0.063603014 -0.17927969 0.032247078
0.053432181 -0.1700061 0.10055704
0.062172655 -0.16369914 0.013348232
0.024533698 -0.16394143 0.074858449
0.030698741 -0.17491651 0.037980855
0.02633987 -0.18238609 0.064054057
0.027251991 -0.16985494 0.12151293
0.039136276 -0.16564566 0.0039034844
0.06107929 -0.16637024 0.0491971
0.034512293 -0.16366424 0.082157806
0.030519588 -0.18722786 0.060729083
0.039238378 -0.16985494 0.12487625
0.04176724 -0.16366422 0.018156009
0.072766788 -0.1742641 -0.010640496
0.044704556 -0.1715007 -0.0053796582
0.046936251 -0.18722787 0.011891546
0.030029966 -0.18722786 0.070555523
0.064081118 -0.16941209 -0.0081343967
0.019814815 -0.16827095 0.10308541
0.03502848 -0.18722786 0.034762576
0.040169846 -0.16985492 0.10428838
0.028978053 -0.17546444 0.10363822
0.044619933 -0.18722787 0.095099747
0.068033688 -0.17664418 0.0075118053
0.056395609 -0.16838402 0.080653906
0.051588815 -0.16366424 0.10071898
0.022591449 -0.17234665 0.086476311
0.038572103 -0.16366421 0.014625313
0.026628343 -0.16366422 0.071515903
0.041613664 -0.18087557 0.12285741
0.034681775 -0.17516777 0.014155442
0.044273786 -0.18722787 0.07936547
0.045674451 -0.18722786 0.10460613
0.054673858 -0.18722787 0.050776154
0.0206101 -0.18722786 0.10256341
0.049879093 -0.16366424 0.045323476
0.046913296 -0.17914259 0.11874958
0.025022233 -0.18407388 0.071935631
0.023279659 -0.17089489 0.082359731
0.054628417 -0.17721672 0.092522867
0.047479801 -0.16366424 0.040256873
0.029796207 -0.17234299 0.043379564
0.020300433 -0.18496248 0.10017978
0.04664303 -0.18722787 0.066295572
0.070391409 -0.17087542 -0.0015304585
0.022664677 -0.17798501 0.086038023
0.026892887 -0.1770442 0.060746361
0.03617169 -0.17716709 0.1177028
0.037242826 -0.18103714 0.12102244
0.029349631 -0.18722786 0.052782446
0.049459316 -0.16366422 0.031986196
0.057952605 -0.17058644 0.070196725
0.054839704 -0.18362597 0.0019780193
0.062999971 -0.16366424 0.027293857
0.042545468 -0.18722786 0.091753468
0.026319388 -0.16752076 0.064176939
0.038065001 -0.16366422 0.063195512
0.067590535 -0.16541937 0.0070301127
0.027024793 -0.17934102 0.116322
0.037257031 -0.18722786 0.025679564
0.063381642 -0.16561392 0.033733882
0.049732726 -0.1646415 0.0085396152
0.047072772 -0.16366425 0.085093409
0.029211514 -0.17269948 0.10212223
0.050975818 -0.16366425 0.088575363
0.025338404 -0.18055528 0.070044577
0.030135395 -0.18103713 0.12450251
0.039081506 -0.16366424 0.08929731
0.055106636 -0.16366424 0.026018513
0.066273607 -0.17217174 0.014310691
0.025950871 -0.16366424 0.10817123
0.045127966 -0.16366424 0.082821816
0.04186232 -0.16366421 0.011930561
0.020290108 -0.16366424 0.10222679
0.046017461 -0.16366422 0.037335906
0.036581747 -0.16366422 0.05111599
0.054444429 -0.1857482 0.0080572311
0.026417591 -0.18722785 0.087345302
0.060530975 -0.18182796 0.052879721
0.028014906 -0.18436971 0.05403446
0.0282715 -0.18722786 0.10735665
0.065083161 -0.16429833 0.011903661
0.03864105 -0.18103714 0.11045777
0.060055383 -0.17063749 0.056073956
0.034686618 -0.16985494 0.12821376
0.037351005 -0.16366421 0.020373046
0.031083249 -0.17099397 0.035680838
0.058588296 -0.17351182 0.065927252
0.027426476 -0.18050243 0.11371359
0.044593874 -0.16366425 0.11567898
0.054286599 -0.18722786 0.040039182
0.062471882 -0.17311944 0.039844032
0.05634556 -0.16657388 0.0044489373
0.037944779 -0.18722787 0.029111832
0.046162281 -0.16824652 -0.0017798243
0.05037944 -0.16366424 0.098267108
0.051389772 -0.16366424 0.051735062
0.029101063 -0.16366422 0.061393019
0.059807837 -0.18113869 0.057736475
0.033160985 -0.17652011 0.023252402
0.053600587 -0.16366425 0.078016542
0.033163894 -0.18722786 0.11199634
0.026462104 -0.16985494 0.1292614
0.041132092 -0.16366422 0.032692011
0.041359589 -0.17184076 0.12498681
0.045757838 -0.18722786 0.11312915
0.039550018 -0.16366422 0.057150353
0.063213155 -0.16366425 0.030392442
0.056218296 -0.17100212 0.081844777
0.05836612 -0.16366424 0.065947957
0.050728466 -0.18722786 0.11449911
0.038421642 -0.18722787 0.098426871
0.052679099 -0.16366422 0.041058872
0.052448213 -0.18722787 0.018024892
0.017716285 -0.18530115 0.11563726
0.053099345 -0.18389621 0.10279247
0.02493031 -0.1751034 0.072485931
0.025783464 -0.18204004 0.067382306
0.03674053 -0.18722787 0.077089384
0.047068324 -0.18722787 0.030374192
0.039119937 -0.18722787 0.047170032
0.031705245 -0.1761508 0.031960223
0.027167831 -0.16970141 0.059101786
0.031471517 -0.18722786 0.045400493
0.043562826 -0.18193801 -0.003627399
0.042670127 -0.16366422 0.063204117
0.037814654 -0.16985494 0.12872809
0.035435434 -0.18630829 0.11763106
0.055955324 -0.16650382 0.083610959
0.054756343 -0.18707362 0.011667626
0.061218135 -0.18686599 0.012296535
0.062465411 -0.18164977 0.03988751
0.043757789 -0.17625207 0.1048874
0.027952723 -0.16366422 0.068165556
0.040816881 -0.16985492 0.11499985
0.024979947 -0.17402646 0.12960047
0.059461307 -0.17937574 0.060063872
0.044604186 -0.16366424 0.10944754
0.042791821 -0.16366422 0.073208041
0.055767454 -0.17785233 0.084872767
0.046657011 -0.18167658 -0.0042867591
0.065801151 -0.1720072 0.017483819
0.034828477 -0.18071173 0.013277929
0.0391583 -0.18103714 0.12737507
0.04647807 -0.16366424 0.075131156
0.037955038 -0.18722786 0.032493547
0.052587744 -0.16369133 0.10622854
0.047066968 -0.18722786 0.04215971
0.040325452 -0.18722787 0.083261408
0.045863658 -0.16366424 0.06364654
0.042773914 -0.16366424 0.080548957
0.031880621 -0.18103714 0.11228836
0.037120786 -0.18103714 0.11561608
0.040343162 -0.18722787 0.042449348
0.03462442 -0.1654126 0.014498535
0.065325215 -0.17475945 0.020680323
0.049581215 -0.18722786 0.089582123
0.062450338 -0.16975451 0.039988771
0.029249554 -0.16366422 0.053291373
0.062808737 -0.18319492 0.037581671
0.044036679 -0.1648158 0.11846925
0.03000975 -0.17509373 0.13042924
0.031884793 -0.18245378 0.030886233
0.064856201 -0.18391378 0.023830347
0.041124694 -0.18722786 0.019343527
0.044677004 -0.18722786 0.10204539
0.063060015 -0.18722787 0.018636297
0.040746082 -0.18722786 0.0096194828
0.057739284 -0.18682885 0.07162945
0.052074872 -0.16858387 -0.0027435373
0.025170745 -0.18722786 0.081738807
0.059576679 -0.18722787 0.031584688
0.038237203 -0.16366422 0.059945863
0.024481747 -0.16955787 0.075169191
0.042631604 -0.18722786 0.037488837
0.025687132 -0.17377323 0.067958914
0.053541988 -0.18722787 0.086047642
0.035358325 -0.18722786 0.044040926
0.020922173 -0.17208004 0.096461371
0.049934562 -0.18722787 0.01550178
0.035544425 -0.16366422 0.055040326
0.059680313 -0.16870841 0.05859296
0.030090213 -0.16751021 0.041620921
0.032430299 -0.16366422 0.080012903
0.047879938 -0.18722786 0.10892182
0.040986493 -0.16366422 0.041735459
0.030778613 -0.16366424 0.088830464
0.051028304 -0.17682894 0.11670214
0.064228043 -0.17336491 0.028049216
0.042335942 -0.17375988 -0.0017444659
0.036109332 -0.18722786 0.037301105
0.046721831 -0.18722787 0.055096187
0.019081438 -0.18509667 0.10747138
0.053721756 -0.18722787 0.023452429
0.026388232 -0.16366422 0.087340973
0.02865798 -0.17149645 0.10571665
0.030882349 -0.18722787 0.11380999
0.046748612 -0.16953743 -0.0055737691
0.018882766 -0.17345089 0.116018
0.035149567 -0.18584941 0.011357249
0.034820966 -0.17449749 0.11757118
0.04740417 -0.17509837 0.11879741
0.029437087 -0.17844954 0.045527719
0.018149685 -0.17893682 0.11304511
0.0385435 -0.18103716 0.10677225
0.024115125 -0.18394592 0.077361643
0.062255412 -0.18722787 0.030921737
0.054824211 -0.17239645 0.09120781
0.048137225 -0.16366422 0.020688292
0.05143863 -0.18722787 0.026029598
0.031694453 -0.18103713 0.12882239
0.056659158 -0.18722786 0.068407647
0.045294411 -0.18722787 0.069700003
0.035352524 -0.16366422 0.058669291
0.042519577 -0.18722786 0.068881966
0.062081441 -0.16736388 0.00031481148
0.025308188 -0.17578116 0.127469
0.050145764 -0.17577991 0.11906458
0.058361083 -0.18722787 0.039257623
0.052532248 -0.1786342 0.10660125
0.048932038 -0.1823843 -0.0019721135
0.031782482 -0.18715352 0.031497981
0.06397792 -0.18722787 0.027774673
0.051672585 -0.18535659 0.0064988066
0.055115581 -0.16366424 0.051616684
0.042181853 -0.17653598 0.1180954
0.019444594 -0.16402389 0.10530006
0.033741612 -0.18722787 0.080656663
0.056413099 -0.18722787 0.024943642
0.055111289 -0.18722787 0.017131992
0.059098452 -0.16366425 0.026552554
0.043010049 -0.17074612 0.11115426
0.032914497 -0.18442409 0.1173854
0.053753406 -0.18400547 0.098399647
0.03210745 -0.17814285 0.029554345
0.020644056 -0.18688552 0.098124258
0.028197441 -0.17309684 0.10870724
0.028220855 -0.16366424 0.090483561
0.034682173 -0.16366422 0.096906915
0.058227677 -0.16681728 0.068349272
0.059645116 -0.1716975 0.058829375
0.065020226 -0.16684896 0.001832096
0.030662991 -0.18722786 0.042710923
0.049994558 -0.18722787 0.029690258
0.045510009 -0.16366422 0.013089254
0.044567112 -0.18722786 0.015003094
0.031941399 -0.16366424 0.10563722
0.037205707 -0.16566686 0.006129079
0.018742353 -0.16974373 0.10950044
0.072194405 -0.17223778 -0.0084452908
0.041206583 -0.18722786 0.058094103
0.037228476 -0.17292222 0.0060941326
0.038171198 -0.18722787 0.063402802
0.038900644 -0.18722787 0.055838548
0.02563433 -0.16944176 0.068274774
0.06408491 -0.18610735 0.01015675
0.031289473 -0.16366422 0.055453092
0.041043747 -0.16366424 0.086280942
0.025452036 -0.18722786 0.09610159
0.025073875 -0.17046605 0.071627252
0.065144882 -0.18722789 0.015889918
0.05219784 -0.1856851 0.10884721
0.065391757 -0.16712451 0.020233423
0.045073956 -0.16366422 0.027702045
0.041451495 -0.1679249 0.11821732
0.028075997 -0.17198019 0.053669386
0.027800474 -0.17227878 0.111285
0.032546058 -0.18130046 0.11734949
0.061032817 -0.18373102 0.049509205
0.066224858 -0.16780894 -0.0021750852
0.021756161 -0.18130621 0.091472298
0.030636877 -0.16736031 0.038350902
0.037441555 -0.18722786 0.080031797
0.020711847 -0.16377336 0.097719692
0.032318916 -0.16366424 0.11381297
0.022940591 -0.16366422 0.099701032
0.035673864 -0.1754218 0.13098127
0.034602489 -0.17173739 0.014629726
0.044922654 -0.18722787 0.045878887
0.062306821 -0.18466285 0.0047601741
0.057784416 -0.18240708 -0.0033594144
0.049085304 -0.16366424 0.048383515
0.035082791 -0.17771858 0.011756698
0.033774041 -0.17854559 0.1307961
0.041635383 -0.16366425 0.11535014
0.050611511 -0.16366425 0.10934475
0.044619735 -0.18450081 0.0029106743
0.028491881 -0.18722787 0.09941297
0.063621491 -0.17376712 0.032122966
0.037137538 -0.17703533 0.0062336996
0.027642217 -0.17590314 0.11231266
0.03651892 -0.17231908 0.11773665
0.027650815 -0.16366424 0.10024127
0.039077926 -0.16366422 0.096855536
0.031182263 -0.18722786 0.084741175
0.05144088 -0.18722787 0.04846539
0.053405967 -0.18722787 0.033634875
0.039503343 -0.18722787 0.034873828
0.02586912 -0.1790168 0.066870093
0.041848011 -0.16366425 0.10323769
0.031642914 -0.16869727 0.032333095
0.064384453 -0.1869287 0.013045558
0.057904758 -0.16366425 0.05230467
0.032825653 -0.18611665 0.025258143
0.020357516 -0.16963871 0.099839091
0.028848868 -0.16985494 0.12474422
0.032569245 -0.18722786 0.099406451
0.036530491 -0.16366422 0.034791328
0.046842515 -0.16389999 0.0099971285
0.059064075 -0.1668835 0.0027457387
0.021405201 -0.17136556 0.093572095
0.039051503 -0.18722787 0.11029609
0.026982034 -0.16596162 0.060213182
0.055007041 -0.18722787 0.080740899
0.047744084 -0.1697181 0.11883055
0.03335451 -0.18722786 0.10714807
0.050045535 -0.16366424 0.038962942
0.030506125 -0.16366422 0.041376084
0.019075837 -0.1779675 0.10750523
0.052371498 -0.17506573 0.1076809
0.034008164 -0.18656251 0.018184731
0.046043888 -0.16366422 0.048854459
0.051330868 -0.18203868 0.11467001
0.029176489 -0.16502671 0.047086559
0.030487638 -0.16366425 0.11124843
0.02833906 -0.18722786 0.11256313
0.045602977 -0.16366422 0.05933797
0.050628088 -0.16366424 0.064070806
0.028133161 -0.18722787 0.084085889
0.052911706 -0.17005908 0.10405269
0.068759114 -0.18165728 0.0047296602
0.056672186 -0.18722787 0.021460297
0.039437719 -0.16366422 0.028910037
0.018307026 -0.18573639 0.11210363
0.051988151 -0.18722786 0.078458935
0.049481038 -0.18722786 0.074225292
0.054549143 -0.16379598 0.093055256
0.05377613 -0.16953439 -0.0068008592
0.046722312 -0.16520852 0.0064671943
0.041130982 -0.18598832 0.006258355
0.056816377 -0.16477685 0.0094764177
0.050704241 -0.16794422 -0.0001361256
0.022961775 -0.16366422 0.088326998
0.028531231 -0.17750597 0.10653972
0.059450153 -0.16561139 0.0077063171
0.05853834 -0.18702587 0.066262789
0.045727525 -0.18379124 0.11863402
0.043648973 -0.18722787 0.085499309
0.050852902 -0.18722787 0.036261149
0.040153988 -0.18722786 0.10748588
0.061625969 -0.1690968 -0.0064551532
0.05746384 -0.1749852 0.073479377
0.048328072 -0.16366424 0.10630115
0.06069858 -0.16772962 0.051754028
0.052331448 -0.18722787 0.045699008
0.025879726 -0.17198122 0.12375763
0.040364366 -0.18103716 0.11267436
0.056394126 -0.18722787 0.047502983
0.032804847 -0.18199053 0.025382727
0.055540551 -0.18722787 0.036673836
0.052339368 -0.18262979 0.10789669
0.028186271 -0.16985492 0.11005799
0.027141139 -0.17270565 0.059261452
0.045253009 -0.16366424 0.07201454
0.028218765 -0.1662977 0.052815396
0.063545339 -0.16935006 0.032634437
0.035761293 -0.16366421 0.012070666
0.06400577 -0.16366425 0.017486542
0.026169468 -0.16728327 0.1167281
0.055429608 -0.18722787 0.062430378
0.049971838 -0.18722786 0.070828922
0.056032561 -0.18570483 0.083092205
0.037958629 -0.16366422 0.032389216
0.049693618 -0.16366422 0.011659388
0.056825731 -0.18600933 0.077765092
0.052717626 -0.18120621 0.10535621
0.06995225 -0.17869221 0.00015377859
0.022425067 -0.18171063 0.11636321
0.044473968 -0.16366422 0.05134381
0.055206537 -0.18252394 -0.0024430319
0.035245784 -0.18722786 0.068804979
0.032346297 -0.18722786 0.049938221
0.071164221 -0.18243383 -0.0056129578
0.050094791 -0.18722787 0.039043445
0.039032161 -0.16366422 0.054465398
0.028994881 -0.17041136 0.048172891
0.061560817 -0.18075281 0.045963019
0.035655402 -0.16366422 0.030655615
0.053262156 -0.18722786 0.064568929
0.034467831 -0.18588883 0.015435204
0.053866323 -0.18052363 0.097641267
0.066384479 -0.18349785 0.013836819
0.043296933 -0.16366425 0.096064672
0.055269122 -0.18597482 0.088219672
0.045521211 -0.16366425 0.10650587
0.023661371 -0.18722786 0.093297556
0.025757827 -0.18471152 0.11668798
0.057464391 -0.16416007 0.073475696
0.051554687 -0.17024063 0.11316681
0.063657455 -0.18496901 0.031881429
0.031281959 -0.16697687 0.1172263
0.019417753 -0.1801298 0.10545991
0.05718141 -0.17189021 0.07537625
0.027487649 -0.16366422 0.083652198
0.027437879 -0.18103714 0.11883577
0.041843057 -0.18722785 0.10030764
0.041085489 -0.16366422 0.06024266
0.056392081 -0.16366424 0.028573712
0.042206585 -0.16366422 0.03581892
0.040574696 -0.18103714 0.13119939
0.059550766 -0.18167463 -0.006566382
0.033536348 -0.18103714 0.12602697
0.023050383 -0.1737714 0.11642414
0.023386421 -0.16657059 0.081721134
0.037148777 -0.18722786 0.11498126
0.024551056 -0.18226464 0.074754141
0.054530151 -0.18489361 0.093182787
0.037426479 -0.16985492 0.11470126
0.056717638 -0.174261 0.078491092
0.029325668 -0.17278895 0.046194211
0.054846004 -0.16608851 0.091061465
0.040612053 -0.18722787 0.066776104
0.033814296 -0.18329182 0.019344484
0.059308715 -0.18386756 0.061088733
0.067399591 -0.17143071 0.0099437004
0.056841798 -0.18325326 0.00015167007
0.052372906 -0.16732569 0.10767145
0.030224171 -0.18284447 0.040819459
0.027405344 -0.18425842 0.057680659
0.029013043 -0.18557993 0.048063893
0.055248395 -0.16366424 0.042672954
0.02562088 -0.17935978 0.12543848
0.041147333 -0.16366425 0.11226912
0.052975219 -0.16535167 0.10362613
0.022186112 -0.16833025 0.088901058
0.054996699 -0.16366425 0.055335186
0.023057401 -0.18435189 0.083688572
0.051604196 -0.16366422 0.01445309
0.035104714 -0.16366422 0.040202945
0.045332246 -0.18722786 0.024883762
0.033836074 -0.17431368 0.019214202
0.03531044 -0.16366424 0.07301192
0.05949099 -0.18722787 0.049692351
0.054894425 -0.16366425 0.045569912
0.069686309 -0.17576082 0.0011737207
0.041477885 -0.16366424 0.083396971
0.051347896 -0.18280783 -0.00064039486
0.026372936 -0.16366424 0.077466622
0.040874913 -0.16985494 0.12238411
0.034418907 -0.18722786 0.027866453
0.05703092 -0.16918328 -0.0059868116
0.043224841 -0.17420577 0.10935405
0.046328545 -0.16366424 0.080077514
0.048552912 -0.16366424 0.058297656
0.062997401 -0.16694717 0.03631451
0.05955549 -0.16366424 0.018810382
0.050249606 -0.16366422 0.025689177
0.065218724 -0.17917797 0.021395568
0.032080594 -0.18722786 0.064166568
0.04591582 -0.16366422 0.023936335
0.033424754 -0.16602144 0.021674618
0.041519333 -0.16366422 0.026319876
0.030876037 -0.17322333 0.11718674
0.060241587 -0.17306165 0.054823317
0.032335799 -0.18056332 0.02818843
0.023912245 -0.16366422 0.082963496
0.06218721 -0.16517068 0.041755982
0.061503775 -0.18584643 0.046346106
0.034846295 -0.18722786 0.096587367
0.054792412 -0.16366425 0.084742531
0.067001007 -0.16705123 0.011472321
0.021950318 -0.1706517 0.090311438
0.032199409 -0.16366422 0.061392933
0.030952133 -0.18103714 0.10371047
0.02671947 -0.18020001 0.061783537
0.040606827 -0.18722785 0.11704775
0.018603515 -0.17952478 0.11033043
0.03686494 -0.16366424 0.11000983
0.046829447 -0.18722787 0.039078005
0.065286793 -0.16853638 -0.0048853001
0.057859294 -0.18349278 0.070823424
0.057034578 -0.16366425 0.032995641
0.042402364 -0.16366422 0.048282899
0.044148572 -0.18614702 0.0072374232
0.0477359 -0.16755661 0.00035838364
0.030495316 -0.16985492 0.118854
0.067036636 -0.16946945 -0.0088822348
0.04066829 -0.18103714 0.10503349
0.035087142 -0.16985492 0.1132068
0.022531837 -0.18435702 0.086832315
0.064827174 -0.17032915 0.024025267
0.037770703 -0.18103714 0.12989648
0.056684986 -0.18122092 -0.0078544822
0.025950942 -0.16366424 0.10384148
0.037760474 -0.16366422 0.069129825
0.068518087 -0.1685295 0.0056540379
0.044309147 -0.16366422 0.01673306
0.05144516 -0.18722787 0.051551547
0.047575589 -0.16366422 0.017305641
0.02811981 -0.17889476 0.053407226
0.033052444 -0.16366424 0.086958006
0.039163638 -0.18722786 0.10442647
0.051470686 -0.17391932 0.113731
0.051957756 -0.16366424 0.027874453
0.037026785 -0.18722786 0.083808713
0.02951134 -0.18722786 0.089852415
0.062619306 -0.17872939 0.038853917
0.033219732 -0.1713385 0.022901
0.045734376 -0.18722787 0.020012712
0.071670465 -0.17497343 -0.0064358823
0.028608166 -0.16870444 0.11696574
0.065150894 -0.18190689 0.021851094
0.057077236 -0.16366425 0.062781215
0.067610286 -0.18452498 0.003280065
0.032714963 -0.17458065 0.025920371
0.028064571 -0.18103713 0.12721452
0.03852481 -0.16854662 0.0041046082
0.02270332 -0.16885015 0.085807256
0.056798197 -0.16798899 0.077950023
0.039172076 -0.16366422 0.066425033
0.052170571 -0.18722786 0.074866086
0.050333969 -0.16366424 0.061214633
0.019981816 -0.1823443 0.10208577
0.03371181 -0.18722786 0.022210067
0.041668445 -0.16366422 0.051696867
0.050927419 -0.16667834 0.1173797
0.061273795 -0.16366425 0.046986092
0.017904326 -0.16473703 0.11451346
0.03878849 -0.16366422 0.025529684
0.040161047 -0.18103714 0.11827274
0.041585296 -0.16488774 0.0063846577
0.046172105 -0.16366424 0.11278068
0.047265746 -0.18722786 0.096381366
0.052204076 -0.17218885 0.10880532
0.032206941 -0.18471545 0.028959125
0.061241768 -0.17362367 0.048105814
0.043605134 -0.18722787 0.10727335
0.026612736 -0.16985494 0.12653737
0.018895593 -0.17250223 0.10858367
0.059734285 -0.17706169 0.058230486
0.059856653 -0.18722787 0.020318201
0.043981548 -0.18722787 0.064323738
0.020753339 -0.18722785 0.11319416
0.040463448 -0.16366425 0.099913709
0.062061936 -0.16840166 -0.0037841063
0.031127885 -0.18722786 0.067937434
0.061089154 -0.16366425 0.024306998
0.020456152 -0.1800046 0.099248566
0.059279051 -0.16366425 0.060500298
0.06292741 -0.18179289 -0.006694274
0.045580816 -0.18722786 0.048942313
0.041775465 -0.18722786 0.015710881
0.049431991 -0.16366425 0.07569325
0.059198309 -0.16752511 0.061830219
0.043592047 -0.18722787 0.042914938
0.031489506 -0.18722786 0.07387358
0.038351607 -0.18722787 0.052988775
0.040244728 -0.16366425 0.10941254
0.053940084 -0.18722787 0.09629339
0.042304583 -0.16366425 0.10645997
0.052711822 -0.1731101 0.1053952
0.048332993 -0.18722787 0.058498342
0.026142804 -0.18722787 0.06657552
0.033383142 -0.16985492 0.11804721
0.047131822 -0.18722787 0.036002066
0.019183189 -0.16894892 0.10686355
0.058334935 -0.18722787 0.062305216
0.036547676 -0.16985492 0.10350905
0.042392209 -0.16627251 0.0028204084
0.041997209 -0.18722786 0.02227656
0.060600452 -0.18677866 0.052413072
0.064662181 -0.18121839 -0.0092711328
0.035262547 -0.17049496 0.13094118
0.050687812 -0.17973481 0.11898898
0.051840123 -0.17525543 0.11124972
0.032446165 -0.16985492 0.10489173
0.048388693 -0.16366422 0.028526317
0.052708127 -0.16366424 0.038153298
0.045074798 -0.16684312 0.0017828511
0.058627725 -0.17654389 0.065662444
0.04414387 -0.18076506 0.1184797
0.037252963 -0.16366424 0.092346579
0.060358927 -0.16366425 0.043539319
0.037307288 -0.16368704 0.0088186013
0.035775274 -0.16366421 0.022671971
0.03944616 -0.17615378 0.11802191
0.032103721 -0.16366422 0.051970687
0.0250574 -0.18722786 0.10491842
0.051039934 -0.18722786 0.05649947
0.038222939 -0.16366424 0.072202377
0.046984233 -0.16366422 0.03467425
0.037639119 -0.18722787 0.050124366
0.050002094 -0.18707487 0.11905058
0.042393915 -0.18318148 0.11830916
0.034078196 -0.18722786 0.047142282
0.045146998 -0.18722786 0.089168578
0.056757171 -0.17139655 0.078225568
0.052765761 -0.18722787 0.020863919
0.021773688 -0.17708787 0.091367655
0.028645828 -0.17712055 0.11696942
0.04063908 -0.16985494 0.12724392
0.021740682 -0.16417022 0.091565475
0.066143073 -0.17804155 0.015187385
0.041748758 -0.16366425 0.092468336
0.064148068 -0.17623773 0.028586347
0.03691053 -0.18722786 0.013205522
0.042243313 -0.16366422 0.030167589
0.025357798 -0.17233086 0.12714684
0.036915116 -0.16926478 0.0065750582
0.035172462 -0.18722786 0.065832309
0.031117031 -0.16781512 0.035478763
0.060248401 -0.1772314 0.054777559
0.035796717 -0.18722787 0.054226283
0.04415378 -0.16366422 0.06597425
0.050553612 -0.16366424 0.067529298
0.064753897 -0.18099886 0.024517488
0.02713098 -0.17443058 0.11563246
0.027766585 -0.16366424 0.074736521
0.035268761 -0.18103716 0.11833738
0.053537734 -0.16545075 0.0070682429
0.069789 -0.16944271 0.0007798631
0.034239184 -0.18722787 0.084160097
0.060340796 -0.18722786 0.043014273
0.028562631 -0.18557477 0.050758105
0.041937046 -0.16366425 0.089422494
0.053354967 -0.16366424 0.021923913
0.061255369 -0.17864972 0.048014466
0.025902277 -0.16561541 0.066671975
0.048751097 -0.16366424 0.070623532
0.027812107 -0.16935655 0.055247907
0.038796231 -0.18450756 0.11795858
0.062859103 -0.17577021 0.037243403
0.019532045 -0.18281791 0.10477612
0.061597712 -0.18552685 0.0083005652
0.027428225 -0.18722786 0.071516484
0.039859425 -0.18722786 0.090000749
0.025808426 -0.18722787 0.10108744
0.018203549 -0.17047176 0.11272334
0.060066633 -0.16366425 0.033563767
0.051334128 -0.16650623 0.0038344315
0.023424577 -0.18722786 0.10267564
0.018780459 -0.16680963 0.10927264
0.065296777 -0.17194508 0.020871311
0.029027257 -0.17026484 0.1303335
0.04379271 -0.16366422 0.054669116
0.0203752 -0.16558972 0.099733412
0.023516413 -0.18116233 0.08094307
0.06478104 -0.17748541 0.024335131
0.064430401 -0.18437329 0.026690131
0.040472619 -0.18722787 0.086407393
0.033022486 -0.18722785 0.059199024
0.034175891 -0.16578102 0.017181505
0.064788043 -0.17418757 0.024288118
0.050556585 -0.18722787 0.032434605
0.023290966 -0.18722787 0.11044441
0.049115632 -0.1687347 -0.0028179963
0.048004039 -0.18722787 0.051354099
0.035511896 -0.17892838 0.0091898795
0.030053327 -0.18103714 0.11011209
0.064418152 -0.17073883 0.026772428
0.034353454 -0.16985494 0.12131756
0.026787691 -0.16366424 0.080447316
0.039958827 -0.18722786 0.038176846
0.064698257 -0.16608234 0.0049192924
0.051677424 -0.18407544 0.11234245
0.049813334 -0.16958073 -0.0062853857
0.064293288 -0.17889273 0.027611002
0.02113498 -0.16366422 0.11255252
0.024331603 -0.18722785 0.11307675
0.023981029 -0.18707788 0.078163601
0.062517926 -0.18358375 0.00045723421
0.03934861 -0.16366422 0.049948901
0.032007195 -0.16661105 0.030154049
0.022235692 -0.17716838 0.088604107
0.035593465 -0.16366425 0.10355186
0.022631846 -0.16366424 0.11002058
0.028444504 -0.169833 0.051465079
0.058432776 -0.18615642 0.009883319
0.032265913 -0.17484458 0.028606467
0.042547721 -0.18722787 0.10475724
0.022645256 -0.18722786 0.095899493
0.05191426 -0.16366425 0.055950701
0.045181859 -0.16813594 0.11858086
0.055276897 -0.17220786 0.088167474
0.029652599 -0.16366424 0.077776782
0.052026797 -0.16948879 0.109996
0.045818366 -0.16366425 0.098931037
0.050597366 -0.18722786 0.084806643
0.065013006 -0.1661914 0.022777192
0.042515315 -0.18074363 0.11530065
0.07270658 -0.17032897 -0.010409552
0.024147827 -0.18722786 0.10756372
0.038955852 -0.1739279 0.0034430702
0.023361191 -0.18722786 0.098773383
0.023153055 -0.17916414 0.083116651
0.053798784 -0.17191046 0.098094858
0.03560736 -0.16783406 0.0086188465
0.058115803 -0.16366425 0.055230368
0.042119309 -0.18722786 0.033751547
0.042623237 -0.17274469 0.11439614
0.057356466 -0.18722786 0.059258364
0.042165786 -0.16366422 0.04468058
0.053135782 -0.16366425 0.069259174
0.043609843 -0.18722787 0.08255472
0.037824608 -0.16366422 0.037594631
0.035162911 -0.16651557 0.011277429
0.028684186 -0.18722787 0.10302499
0.058002789 -0.16366425 0.041483074
0.043675326 -0.16757815 -0.00044435181
0.050731633 -0.16366425 0.080466792
0.057342999 -0.18373248 0.074290991
0.037499569 -0.18722787 0.072588295
0.028717346 -0.16616397 0.04983303
0.050449986 -0.16366425 0.10448681
0.045902155 -0.16366424 0.089702867
0.059012428 -0.18722787 0.027042506
0.050418723 -0.18722786 0.10279559
0.032349989 -0.16366422 0.071645595
0.020327259 -0.16822316 0.11615877
0.060213655 -0.18528248 0.055010919
0.03353202 -0.16366422 0.064717457
0.056231458 -0.179802 0.081756383
0.070348009 -0.18148854 -0.0092057204
0.041038089 -0.18722786 0.062559873
0.020442829 -0.17493731 0.099328518
0.029535746 -0.18722786 0.056260135
0.055376977 -0.18722787 0.04374899
0.048417076 -0.16366424 0.095326833
0.028498881 -0.18480384 0.1169551
0.038411953 -0.16366422 0.081024788
0.023076247 -0.16366422 0.10386974
0.058827445 -0.1849135 0.0063644843
0.053186409 -0.18722787 0.083144605
0.03287534 -0.16985492 0.1152494
0.054535948 -0.18722787 0.076223485
0.034377623 -0.16366425 0.092751831
0.033291537 -0.18264435 0.022471465
0.061817057 -0.17741166 0.044242013
0.03490191 -0.1691059 0.012838664
0.062536038 -0.16693479 0.039413154
0.034231286 -0.16366421 0.020123342
0.054075889 -0.18148769 -0.0063398858
0.034642078 -0.18722787 0.1043103
0.023757078 -0.16832764 0.079503961
0.043328889 -0.17875241 0.10848206
0.047662623 -0.16366425 0.1152214
0.043014422 -0.18103714 0.11006162
0.027373523 -0.18103713 0.12378353
0.048597947 -0.16366425 0.078415267
0.051051714 -0.18639161 0.0091596423
0.057039734 -0.16553807 0.076327793
0.065771542 -0.1849231 0.017682672
0.062058449 -0.16366425 0.020000111
0.052712452 -0.1847477 0.10539097
0.040910542 -0.17931069 0.12875031
0.048696678 -0.16366424 0.10080618
0.059859041 -0.17422453 0.05739259
0.018639024 -0.18330868 0.11011785
0.03361614 -0.1694591 0.020529782
0.020926122 -0.16622902 0.096437968
0.028114185 -0.17593415 0.10924788
0.035292126 -0.18103713 0.107564
0.042732287 -0.16366422 0.039101474
0.054355577 -0.18722787 0.028385203
0.02998209 -0.17794099 0.042267662
0.04811649 -0.16366424 0.087622307
0.039703108 -0.17337039 0.11804694
0.026182534 -0.17423561 0.064995557
0.025263621 -0.16366424 0.09772861
0.046487723 -0.18722786 0.082555935
0.025767103 -0.17687826 0.11668888
0.041504472 -0.18722787 0.050359838
0.028041601 -0.17895377 0.1097192
0.056095347 -0.18722787 0.03051107
0.057712868 -0.1774402 0.071806855
0.058219258 -0.18722787 0.055773567
0.041938312 -0.17884155 0.12013652
0.036545143 -0.16366422 0.047858462
0.030028362 -0.17517264 0.04199088
0.038173441 -0.17903498 0.11789788
0.05105298 -0.18429863 0.1165364
0.045899518 -0.16366422 0.068736158
0.049972307 -0.16366425 0.083842278
0.028630931 -0.17933986 0.050349869
0.059344999 -0.17390057 0.060845017
0.061633177 -0.18722787 0.015944492
0.032716524 -0.17785612 0.025911044
0.053704202 -0.16366425 0.08145348
0.050429594 -0.18722786 0.095810153
0.050391648 -0.18722787 0.012476476
0.034797363 -0.18103714 0.12910335
0.042944588 -0.16985494 0.10465987
0.038182639 -0.18722787 0.068714917
0.050934732 -0.18722787 0.042714901
0.037587874 -0.16366425 0.11297719
0.026267204 -0.18546063 0.06448856
0.038194701 -0.18722786 0.018843466
0.048111923 -0.16663417 0.0029002605
0.019059297 -0.18193899 0.10760398
0.032078922 -0.16985494 0.12957418
0.045895133 -0.18324441 -0.00022344268
0.052345648 -0.16366425 0.086103871
0.058089487 -0.17411858 0.069277398
0.059105083 -0.16829357 -0.0028355066
0.031217791 -0.18722786 0.081833147
0.071613029 -0.17810917 -0.0062156161
0.055181634 -0.16867326 -0.003644692
0.035237614 -0.18722786 0.06305296
0.035111673 -0.18722786 0.051285759
0.047593601 -0.18666555 0.0092595443
0.042864718 -0.18722787 0.04778605
0.070842586 -0.17819022 -0.0032608479
0.068136528 -0.16605856 0.0044070547
0.038096897 -0.17342837 0.13121742
0.061611775 -0.17476748 0.045620777
0.060868315 -0.17128366 0.050614014
0.033152498 -0.1792756 0.023303153
0.043911837 -0.18722787 0.03990607
0.041128986 -0.16366424 0.069970161
0.034234378 -0.16366424 0.089599885
0.045647331 -0.16366422 0.019507717
0.0269279 -0.17756286 0.13012889
0.029223915 -0.16366424 0.1143649
0.034262605 -0.16366425 0.11160509
0.058155492 -0.16401362 0.068834089
0.069692634 -0.16964981 -0.010063498
0.043947004 -0.18722787 0.11561616
0.048787288 -0.16366422 0.014363703
0.065273128 -0.18722786 0.02062705
0.031624023 -0.16985494 0.12683785
0.052950811 -0.18722787 0.013864961
0.026234344 -0.18722786 0.090310983
0.062299661 -0.18418829 0.041000728
0.056878112 -0.17814821 0.077413298
0.04003768 -0.16985492 0.11234391
0.063355938 -0.18296939 -0.0021190527
0.026038889 -0.17096132 0.065854803
0.043658167 -0.16435155 0.0082023675
0.051192939 -0.16890833 0.11559643
0.050572418 -0.18722787 0.022964781
0.051183511 -0.18722786 0.081146866
0.058239486 -0.17848489 0.068269931
0.041112415 -0.18722787 0.053753905
0.026185643 -0.17672312 0.1217711
0.026689738 -0.17444812 0.06196161
0.049518544 -0.16366424 0.0425773
0.021424912 -0.17108172 0.11626574
0.043219462 -0.16366425 0.10082381
0.027698662 -0.16366424 0.10602929
0.043711018 -0.16934137 -0.0038548363
0.034424633 -0.18722786 0.11445692
0.053192351 -0.16366424 0.065188579
0.06858521 -0.17497176 0.0053966306
0.038550839 -0.17821696 0.0040646587
0.024037167 -0.16366424 0.113611
0.048117213 -0.18722787 0.068782538
0.030678213 -0.16366422 0.10060573
0.055165041 -0.16797227 -0.0008706646
0.043803133 -0.16366422 0.077593893
0.038282853 -0.18642031 0.0068938835
0.047409557 -0.18722786 0.072209314
0.052604031 -0.18722786 0.061881188
0.059039447 -0.18051594 0.062897176
0.057283416 -0.17755064 0.074691162
