# .PCD v0.7 - Point Cloud Data file format
VERSION 0.7
FIELDS x y z
SIZE 4 4 4
TYPE F F F
COUNT 1 1 1
WIDTH 843
HEIGHT 1
VIEWPOINT 0 0 0 1 0 0 0
POINTS 843
DATA ascii
-0.088943996 -0.67533249 -1.5343626
0.30192199 -0.37977272 -1.3650296
-0.74375916 0.79836559 -1.8090564
-0.11835449 0.091239035 -1.6559922
0.53594917 0.54371893 -1.0419838
0.58770931 0.50436115 -0.4457345
0.73723471 -0.8177197 -1.3892412
-0.39341956 -0.34509158 -0.76090503
-0.36742684 -0.76760519 -1.1000905
0.27241945 -0.29309285 -0.67601895
0.73773754 0.70935082 -1.6769904
0.69304562 -0.9800204 -1.7524756
0.49034023 -0.71400416 -1.8242445
-0.62697822 -0.35680252 -0.97018045
0.36572102 0.53322768 -1.0104524
0.73407525 -0.71077847 -1.7312536
0.055662677 0.64012891 -1.090862
0.52786887 -1.1141055 -1.456457
0.085812137 -0.48306507 -0.87362719
-0.57926834 -1.041707 -1.9306872
-0.56056517 -0.49826777 -1.0009056
-0.30399412 -0.72842681 -1.2111902
-0.545403 -0.27120534 -1.0399626
-0.19004452 1.2379216 -1.1212673
0.63301218 -0.42017475 -0.36507455
0.63285518 0.45468479 -0.34451702
-0.14358667 -0.48135641 -0.85932213
0.31854072 -0.46110144 -1.1733134
-0.6322999 -0.3410098 -1.1327788
-0.47763574 1.3077596 -1.2757792
0.59286243 -0.79409957 -0.83037341
-0.60735047 -0.2752949 -1.5798302
0.58006811 -1.1855965 -1.7383361
0.63477987 0.80685574 -1.3912728
0.38733974 0.68805134 -1.5695803
0.55986559 0.5753597 -0.92648721
-0.12175342 -0.98172426 -1.6479921
-0.2842392 -0.25052866 -1.5292133
-0.022882912 -0.31694514 -0.10852552
0.30470622 -1.0295674 -1.1840438
0.1032364 0.63793606 -0.84626383
0.0060815103 1.0644742 -1.0001405
0.59100688 -1.3482754 -0.86579424
0.58285874 0.56716371 -0.60284185
-0.48957992 -0.70170999 -1.8093594
-0.43563408 0.68447554 -1.2962362
-0.73879701 -1.0748036 -1.6620237
0.18361099 0.0023235679 -1.6325988
0.43903613 -0.98614347 -1.5907576
-0.66007757 -0.89561653 -1.9757977
0.24346429 -0.98502588 -1.5383544
0.2427295 -0.48595649 -0.89783448
0.74294448 -0.66982263 -1.5712332
0.18929559 -0.83600086 -1.1489741
-0.54548156 -0.67220372 -1.4208418
-0.088412918 -1.1050314 -1.3773167
-0.2446464 0.48111334 -0.61262387
-0.14046447 -0.37286347 -1.3751334
-0.5871976 0.59200358 -1.1595809
0.41137725 -1.4060136 -1.0485942
-0.13488986 0.18917736 -1.3324426
-0.10634412 -0.023834012 -1.1380982
0.27182081 0.29373413 -0.10271826
0.31966615 0.98232174 -1.2863207
-0.31970322 0.87177962 -1.5250244
-0.74322522 1.1295435 -1.4393857
-0.1658529 0.42225128 -1.655992
-0.12489357 0.19907826 -1.4560578
-0.26366749 0.11980903 -1.6417394
-0.13584942 1.0341663 -0.98942864
-0.35510248 0.6199522 -0.8635453
-0.66261697 0.85739106 -1.9474306
-0.49822855 -0.79090554 -1.4989663
-0.5897426 -0.25052857 -1.2731078
0.59286243 -1.0925333 -1.0793413
-0.078291044 -0.77704632 -1.4137707
-0.3191838 -0.34029967 -0.10852563
0.74469852 0.9824965 -1.4252732
-0.46009541 -0.51685226 -1.3093871
-0.50284451 0.23675823 -1.5866261
0.085709073 0.89283544 -0.92610765
0.27299622 0.6857816 -0.87642395
-0.58214676 -0.40965346 -0.58708239
0.086570576 -0.30484 -0.98918402
-0.63011837 -0.43056563 -0.47999883
-0.41609707 0.33936399 -0.12399152
0.056233704 -0.69372284 -1.330461
0.17402926 -0.43971685 -0.39231643
-0.58000994 -1.1326208 -1.8517337
-0.4216595 0.6563341 -1.6070664
-0.040726967 0.88982743 -1.5897635
-0.3276681 0.93477046 -1.1430604
0.21123417 1.2706652 -1.2225633
-0.73660123 1.0004168 -1.8433716
-0.16453122 1.0224795 -1.4757882
-0.35899243 -0.86200458 -1.4468691
-0.015397759 -0.32037443 -0.90108323
0.42159212 1.1671618 -1.1337048
0.49324116 -1.0733707 -1.676612
-0.292032 -1.1790373 -1.1000905
0.081757627 0.32441348 -0.088398933
-0.12299412 -0.46936736 -1.6069629
0.59306866 -0.25052854 -1.2551348
0.22531554 1.0867028 -1.0027195
-0.61202067 0.1551625 -1.3778217
-0.61407459 0.81389254 -0.97874773
0.56536365 -0.93169487 -1.1000906
-0.15245134 -0.43418145 -0.50953585
0.34613362 -0.24041975 -1.6325989
0.50602674 0.011853255 -1.6325989
-0.027211603 -1.0152879 -1.4489852
0.46181628 0.37459245 -1.6325989
0.2194438 -0.90993458 -1.2433991
-0.035479639 -1.0884172 -1.2650124
0.5553441 -1.4029849 -1.0779204
-0.10086126 1.1452223 -1.0414428
-0.60616803 0.96577442 -1.1011966
-0.21749541 0.29626176 -0.12861076
0.49226683 1.0621059 -1.4363018
0.085305773 -0.49945781 -1.0108689
0.17403133 -0.40624031 -0.55468315
0.36398563 -0.96250725 -1.69506
-0.65065134 -0.59399903 -1.802388
0.67538065 -0.94773245 -1.0109527
-0.51494128 0.70338494 -1.7559733
0.52921617 -0.30900055 -0.96558702
0.26461563 0.20183824 -1.4866874
-0.65268767 0.66768694 -1.6726881
0.39836219 0.30199155 -0.088416032
-0.52487326 1.176373 -1.9057244
0.59265679 -0.37140948 -0.20560402
0.092815623 -0.9528985 -1.1000905
0.58771068 1.3085868 -1.657014
-0.28370771 -0.8940869 -1.1000905
-0.4931775 -0.34645435 -1.4808214
-0.49777418 -1.0290837 -1.1489741
0.40638143 1.0214911 -1.0096436
-0.34237126 1.0244418 -1.5435593
0.66780919 1.0286465 -1.7338319
-0.57262254 0.94758916 -1.344672
-0.26685068 0.52855992 -1.0281929
-0.63353372 0.21348107 -1.6325989
-0.70350248 0.96871632 -1.9704597
0.73812044 0.92171013 -1.92819
0.014933224 1.2794061 -1.4503257
0.63301218 0.084628165 -0.08914952
-0.58239019 0.55318856 -1.5410316
0.52477938 -0.30520302 -0.090105727
-0.57885528 1.3075979 -1.6574731
0.22663568 0.69623816 -1.4664139
-0.33124894 -0.60662061 -1.606963
0.36747071 -1.3624281 -0.86498368
-0.6322999 0.46033642 -0.39499581
-0.13195693 -0.38737935 -0.6188727
-0.044318162 0.318124 -0.088398933
-0.64210069 0.85506964 -1.1355876
-0.36789709 -1.2571818 -1.1489741
-0.57998258 -1.2337047 -1.1489741
-0.28953847 0.19497749 -1.2253598
0.040386356 -0.82402027 -1.2733604
-0.74008447 -0.6034376 -1.6633772
0.63380778 0.71145272 -1.4942406
-0.37361902 0.25236252 -0.7728374
-0.041354783 0.74484515 -1.5732112
0.64279759 -0.060439758 -1.5631559
-0.16131353 -0.80384624 -1.5200849
-0.584086 -0.40141675 -0.18323727
0.49684733 1.177089 -1.6862676
-0.49042922 -0.86920655 -1.923516
0.49996191 -0.4859173 -1.2027165
0.65625876 -0.59367651 -0.87068874
0.74077153 1.2210125 -1.5160257
0.16077167 1.1053877 -1.7095221
0.27192241 1.1161647 -1.6122708
0.60019302 -0.81200796 -1.9720869
-0.60412133 -0.55879402 -1.6192303
-0.48419237 0.68254095 -1.1339329
0.67369658 -0.66472161 -1.0288063
-0.52934057 0.76931131 -1.8802052
0.65625876 -0.42303962 -1.0393417
-0.6082108 1.1079414 -1.3602667
0.23389128 -1.3102005 -0.85597062
0.66881895 0.58411825 -0.99660498
0.59286243 -0.67834795 -0.93750489
0.49276769 1.1845071 -1.8162054
-0.73765802 1.1139011 -1.796737
-0.3677398 -0.12175299 -1.6124678
0.69363737 -0.66790479 -1.4263722
-0.7339462 -1.1263775 -1.7822917
0.74415249 0.82698065 -1.854836
-0.28656954 -0.47827685 -0.83353978
-0.13624701 -0.44775754 -0.34910995
-0.68185359 1.0047804 -1.3437613
0.46368054 -0.87849623 -1.6791832
0.72548902 1.1286939 -1.9137104
-0.15807378 0.54844958 -0.93932796
0.32856959 0.92651254 -1.1467181
-0.74114406 -0.77757549 -1.4110452
-0.57852936 -0.82797456 -1.3451962
0.62280327 0.67593968 -0.90755928
0.56036019 0.3134107 -0.088398933
0.73256922 1.272284 -1.6669054
0.46860099 -0.51069486 -1.326396
-0.35458618 -0.86483461 -1.5683202
-0.6230495 0.66776836 -0.88852489
-0.49137241 -0.98633581 -1.5627925
0.49992722 0.94213486 -0.94626635
0.21825022 0.67752987 -1.1014991
-0.29508692 -0.15269521 -1.2421229
0.5008021 1.0360862 -1.8344771
-0.16084416 0.68666339 -1.2093202
-0.59215021 -0.5740099 -0.88389158
0.11590032 1.276412 -1.3521781
0.46241477 -0.32513821 -1.5163229
-0.48459664 -0.31860381 -1.1733134
0.52706712 -0.38414711 -1.6069629
-0.26682407 0.35298601 -0.74686718
0.18514676 0.19181533 -1.3754514
0.10553364 -0.25052875 -1.4279505
0.56673133 -0.13764445 -1.6325989
-0.29139894 0.59818363 -1.6077325
0.59988034 -0.41445965 -0.64064199
-0.29569027 -0.98117828 -1.6587296
-0.49438268 -0.314982 -0.93166465
-0.47413504 -0.99454111 -1.7421569
0.60973245 0.39151105 -0.17570071
0.43553916 -0.068407476 -1.2421229
-0.02498755 -0.37937868 -1.1871376
0.00012786615 1.240941 -1.1271168
-0.49856997 0.18917766 -1.337847
0.07981167 -0.005420737 -1.1375499
0.44135603 0.68727046 -1.1889812
-0.63230002 -0.43530697 -0.31577763
-0.22793575 -0.82836318 -1.2418064
-0.72672081 -0.74043822 -1.7496991
0.52476519 -1.1782231 -1.5777999
0.51348394 0.19888234 -1.4538798
-0.744573 0.95967478 -1.4514971
0.51059705 0.8889631 -1.9349418
0.17398712 -0.35209572 -0.90645283
-0.5840857 -0.044845015 -0.065090351
-0.49023914 -1.1283846 -1.7060112
0.12078995 -0.62272745 -1.2061698
-0.37916285 0.61545062 -1.0833685
0.60865694 0.66803247 -1.6955489
-0.50546104 -0.59314322 -1.7054801
0.32786128 0.87048584 -1.5350732
-0.22143145 0.24677822 -0.79415143
0.3874709 -0.72696936 -1.1000905
0.15269864 -0.40600488 -0.69049311
-0.59215021 -0.96203959 -1.0105246
-0.74138546 -0.66646951 -1.5068163
-0.43122002 0.95519245 -1.6947663
-0.29001987 -0.37937868 -1.1892234
-0.49108955 1.0413058 -1.8584172
-0.16638201 1.0093 -1.6473001
0.46559769 -0.81539249 -1.1489741
0.45723572 -0.9885658 -1.1489741
-0.66241914 0.70819819 -1.0337591
0.48467335 0.92682451 -1.6480956
-0.31950438 -0.3058548 -0.983428
0.5537076 -0.4133282 -1.4361995
-0.38097975 -0.010215871 -1.2421798
0.38128328 -0.120856 -1.1507299
0.63978934 -0.13212042 -1.3865151
0.14749748 -0.32086962 -1.2981752
-0.05448065 0.18812379 -1.1503332
0.2819199 0.60662991 -1.6579123
-0.49205306 0.60540211 -0.88517171
0.15160583 -0.70570731 -1.1000905
0.36360961 -0.32994178 -0.84682375
0.41005087 0.090988509 -1.2421229
0.4134419 -0.25052863 -1.4272326
-0.16631106 -0.62272739 -1.2374882
-0.13970008 0.61754537 -1.6245511
0.19442523 0.78758562 -0.86561763
0.6142742 0.64920622 -0.74058378
0.61614084 -0.81047988 -1.3431563
-0.43103597 -0.47068873 -1.1733134
0.45812055 -0.27560255 -1.1733133
-0.48727491 -0.48802203 -1.4543486
-0.65673506 -0.96327537 -1.1407838
-0.74297744 0.72596371 -1.5831596
0.43538272 1.0036875 -1.7290699
0.74183017 -1.1435568 -1.636811
0.59286243 -0.48904413 -0.87746727
0.20355774 0.56407887 -0.85699469
-0.66115087 -0.031630144 -1.3732146
-0.18813848 -0.4952687 -0.97579747
-0.56692851 -0.61791354 -1.1000905
0.13145083 -0.26818752 -0.81726432
-0.16038845 -0.14231206 -1.6325989
-0.50302243 -1.405113 -1.0515791
-0.45816439 0.42228454 -1.6028748
-0.74235767 -0.9621222 -1.8614969
0.38766572 -0.7595104 -1.7146299
-0.21339421 -1.0184262 -1.4035261
-0.1714779 -0.81111336 -1.6454827
-0.4027051 1.2145989 -1.2377293
-0.47849786 -0.25052857 -1.5787022
-0.51326704 0.56667876 -1.0620801
0.33627388 0.18917611 -1.3155844
0.53584766 1.2814746 -1.2808832
-0.58493155 0.61780614 -0.77130735
-0.66709697 0.95263088 -1.5560513
0.54965323 -0.99133945 -1.365113
-0.39630467 0.43465689 -0.63323247
0.18062659 -0.73560524 -1.5705469
0.51386738 -0.056802265 -1.1431042
-0.41301775 -0.10305758 -1.1505103
0.11154335 0.99532437 -1.1714088
0.67056304 -0.24031277 -1.4464658
-0.40341499 -0.50446659 -1.0528033
-0.66805196 0.58588248 -1.013036
-0.6038872 -0.66711783 -1.9017892
0.16278444 0.98793828 -1.6312971
0.057654746 0.68782085 -1.4053459
-0.40575728 1.0558438 -1.0076023
-0.14373484 -0.4083989 -1.114287
-0.66709697 0.97606683 -1.6923888
-0.4067207 0.20033005 -1.4699478
0.47699019 0.20962441 -1.2156274
-0.18114088 0.69078463 -1.396248
0.32608119 0.049229771 -1.6579124
-0.51582855 -1.1356372 -1.5048296
0.27133593 -0.11244864 -1.2421229
0.58077729 -0.67928553 -1.9096186
0.48100066 -0.41761833 -0.97272801
0.59286243 -1.0852545 -0.83353376
0.39447454 -0.61618114 -1.3880424
0.07217437 0.76204777 -0.88150239
-0.42029372 -0.24671704 -1.0356448
-0.70045513 -0.77579701 -1.557061
0.7322892 -1.0120299 -1.4117122
0.57185912 -0.60180455 -1.8149142
0.010083997 1.0017893 -1.6078709
-0.55005521 0.99180901 -1.5228014
-0.59215021 -0.8910262 -0.86183858
-0.25501814 -0.52828813 -1.1000904
-0.658517 0.61854959 -1.4449383
-0.33296585 1.1161647 -1.6187379
-0.63907701 -0.14922963 -1.5677972
0.66587567 -0.97592676 -1.5993394
0.14669241 0.85373282 -1.5645449
-0.058279593 -0.25052875 -1.2389945
-0.19804649 -0.25052872 -1.1979036
-0.62183166 -0.12080589 -1.2970536
0.16184443 -0.62272739 -1.422292
0.32601956 0.68766582 -1.2251866
0.56398112 1.0492585 -1.0554795
0.31875408 1.0693182 -1.1337949
0.2013426 -0.45487839 -1.1489739
0.49562308 0.72397912 -1.741799
0.7428875 -0.78976387 -1.8681859
0.084929325 -1.3877387 -1.0070376
0.25369006 -0.66248292 -1.2225339
0.60548735 0.17264383 -1.5274155
0.082737073 -1.0985959 -1.2861749
0.35119078 -0.46880615 -0.82308388
-0.65183985 -0.35157329 -1.3512373
-0.56841499 0.87427235 -1.6279726
-0.053046402 -0.21503185 -1.6325988
-0.070521891 -0.90993464 -1.1967576
0.59664953 -0.39323685 -0.76601505
0.25355062 1.1559631 -1.186265
-0.60962927 0.54485697 -0.64057893
0.0096545219 0.042660341 -1.655992
-0.29915428 -0.75951064 -1.534054
0.23624858 0.31678751 -1.6325989
0.58855182 1.1858563 -1.9094217
0.026812075 -0.11980752 -1.6325988
-0.19038999 0.85552633 -1.487431
0.13258371 -0.39232257 -0.19500875
0.63891876 0.1250791 -1.3460457
0.72126925 -1.1146266 -1.479661
0.28319633 -0.88068998 -1.5809996
0.063645378 0.16191757 -1.1383047
0.5958972 -0.31043488 -1.1288042
-0.31519276 0.47841811 -1.6468061
-0.029096212 -1.3624072 -0.86467385
0.5249787 -1.3102006 -0.9817754
-0.27209842 1.288368 -1.4907364
0.20968628 -1.0260007 -1.1000905
-0.039814007 0.61030519 -1.3465241
0.039297767 0.19537979 -1.4150121
0.13982981 0.55220646 -0.95902431
-0.65554661 -0.7783742 -0.92412466
-0.57535732 -0.99505544 -1.3631885
0.27912161 0.98976755 -1.5310285
0.64530122 -0.80030441 -1.1489742
-0.73911095 -0.94419038 -1.4719489
0.60527951 -0.27256638 -1.6069632
0.35812506 -1.3102005 -0.98335344
-0.56648147 -0.89030838 -1.6280386
-0.46755257 1.1653683 -1.1503367
-0.66335005 0.55503321 -1.3324794
-0.5821467 0.36801267 -0.22116901
0.10033341 -0.40429926 -1.2201545
-0.041641682 0.64634681 -1.4771776
0.35369664 -0.88802177 -1.4428756
-0.62833047 0.47939759 -1.6325989
0.24765646 0.81137824 -1.2432275
0.02983823 0.51412332 -1.0369169
0.054721039 0.92619753 -1.5011008
0.59643823 0.27099678 -1.6325989
-0.0098165041 -0.32528269 -1.5160842
0.67748916 0.39076605 -1.6249771
0.1944672 0.18168864 -1.2296854
0.41882166 0.93594241 -1.49322
0.57831907 1.1653819 -1.3939573
-0.56587708 -0.017826859 -1.2787744
0.18848722 -0.84896636 -1.4859993
-0.047622442 0.77882087 -0.8845951
-0.66516352 -0.95699006 -1.7289402
-0.042807195 -0.25052875 -1.3725526
0.51781857 0.88350868 -1.3751493
0.22390506 -0.34280777 -0.77385724
-0.37382412 -0.79154444 -1.7148492
0.19263808 -0.99287081 -1.4211078
0.28444427 -0.84345937 -1.3284521
0.26410452 -0.31061822 -0.099484995
0.6546157 0.99677986 -1.9782305
0.64123124 0.86529469 -1.0682173
-0.02305167 -1.0464923 -1.1489741
-0.49210024 1.0908642 -1.4276452
0.26541358 0.90725982 -0.92119008
-0.66772449 0.68973333 -1.1596279
-0.07249517 -1.1656252 -1.1489739
0.16387226 1.0368825 -1.5124362
0.0050157066 0.55487019 -0.81000179
-0.0019792623 -0.55230075 -1.1489741
-0.2342317 -0.62272733 -1.4211991
0.26889285 1.3070146 -1.365489
0.54837227 0.89632958 -1.7603967
0.65625876 -1.2325062 -0.84306312
-0.65554661 -1.3479416 -0.8427242
0.43872869 0.23330408 -1.5862947
0.50106031 -1.0112655 -1.9061364
-0.11597408 -0.31235516 -1.6069629
0.60662669 -0.38190478 -1.2246619
0.66780919 0.89319777 -1.6421313
-0.66352546 0.35990292 -1.6112452
-0.18737793 1.1729362 -1.638896
0.732728 0.83114719 -1.7322574
-0.51110208 -0.82996112 -1.1000905
-0.11282617 0.47853172 -0.83208793
-0.55082673 -0.38397428 -1.5978982
-0.24544138 -0.7356053 -1.3561678
-0.67284501 -1.1761315 -1.0181856
0.064021707 -0.9444375 -1.4167376
-0.47586221 0.89019167 -0.91985774
0.57334036 -0.64576739 -1.4423344
-0.7144323 -1.0494891 -1.4076062
0.74193227 -1.0012599 -1.8901478
-0.44710645 -0.42748451 -0.84571481
0.28189898 -1.3261297 -1.1489741
-0.11407802 -1.4071689 -1.0270396
-0.56564003 -1.1890115 -1.6115975
-0.041584313 -0.76301175 -1.6209815
-0.41700184 -0.25052863 -1.3895526
0.28975976 0.86672783 -1.6762688
-0.74346685 0.74009109 -1.7039926
-0.32206571 -0.42572075 -1.6579123
0.38284963 0.50349444 -1.6077849
0.53826892 -0.59767401 -1.1489741
0.22501537 -0.7356053 -1.407725
0.5144999 0.66659957 -1.5693115
0.59248483 -0.21318921 -0.053207226
-0.65554661 -1.389932 -1.1008074
-0.66516352 -0.9053573 -1.5615722
0.36752331 -0.60706121 -1.1733134
-0.22072519 -0.56149083 -1.6069629
-0.42983684 0.12276933 -1.6325989
-0.24880061 -0.96530849 -1.2372185
0.49111015 -0.80903357 -1.9127793
0.28217876 -0.44486395 -1.6241686
0.65625876 -0.91753507 -0.87164271
0.16953187 -0.31909516 -1.1300133
-0.45135835 0.10773993 -1.2421799
0.54941952 -0.19938853 -1.1517842
-0.0073885405 0.68751603 -1.2493361
-0.65554655 -1.1700463 -0.88155401
0.66587567 -0.82859462 -1.6315668
-0.052022293 -0.23747361 -0.9914515
0.30075714 -0.25507209 -1.2421229
-0.062872261 -0.87270987 -1.5571983
0.62672174 0.56919527 -1.2049234
-0.12826614 0.60633689 -0.83920681
-0.30989537 0.2136602 -1.5847026
-0.37728044 -0.62272727 -1.3568813
0.20548815 -1.4052501 -1.0747895
0.16353476 0.68818414 -1.2792954
0.1982419 -0.16833584 -1.1501787
-0.59331107 0.49533558 -0.51736909
0.073175311 -0.10973321 -1.2421796
0.32033721 -0.011011586 -1.1493757
-0.73702103 1.2485378 -1.7551001
-0.13796961 0.091407359 -1.1402419
0.49117094 -0.77429187 -1.414521
0.74099362 -1.1042173 -1.8089635
-0.6955483 1.1203241 -1.6123115
0.60629356 -0.030839674 -0.10935749
0.39654601 0.62623334 -1.0864381
-0.24728149 0.19652972 -1.4277723
0.62659532 -0.58091086 -1.5333544
0.074140966 -0.66991723 -1.5880132
-0.38895866 -0.25985879 -0.86449879
-0.022932287 0.18917596 -1.2847018
-0.24259685 0.9309063 -0.94518089
-0.30846879 0.87760162 -1.6590486
-0.030169563 1.2036999 -1.6139145
-0.043419179 -0.62272751 -1.2613059
0.53003228 -0.75089926 -1.5882838
0.11006166 0.41459614 -1.655992
0.19337431 0.51534551 -1.6076863
-0.63230002 -0.2200419 -0.07883323
0.3178432 -0.41851568 -0.96117556
-0.60451049 1.08807 -1.9664038
0.66908288 0.91511691 -1.3505297
0.70328414 -0.83378941 -1.5191965
-0.24494217 0.00016380101 -1.6325989
-0.56211817 1.0727437 -1.6422693
-0.74192744 -1.0832601 -1.5438042
-0.54707837 -0.25052857 -1.43106
0.64464998 0.071905062 -1.6325989
0.3673135 0.8381803 -0.89701867
-0.24762212 -1.3624517 -0.86522484
-0.14854598 0.79444039 -1.6216587
-0.37862051 -0.64830446 -1.1489741
0.56089276 0.96423233 -1.1560245
-0.22423285 -0.36526567 -1.6069629
0.66765594 -1.2281036 -1.0717226
0.24914682 0.53130132 -1.0406868
0.18743622 -0.23992927 -0.97752482
0.72752666 0.93642098 -1.810251
0.38187316 0.19856721 -1.4503837
-0.32995331 -0.99454153 -1.529541
0.1786717 1.2882791 -1.5092772
0.47648916 -0.34870428 -0.74041635
-0.189751 -0.34772584 -0.063450731
-0.14512405 -0.36939093 -0.19863433
0.58736897 0.55277616 -1.3610475
-0.13906616 1.2983953 -1.5118157
-0.63907713 0.054982521 -1.5294545
-0.12999719 -0.14751092 -1.1422975
0.12199584 -0.29717949 -1.5625916
-0.19116673 -0.93860126 -1.5128386
0.23133224 0.15221749 -1.6325989
-0.60313743 -0.33289269 -0.058372382
-0.29696882 0.72917515 -0.87438899
0.064183801 -0.25052875 -1.2192394
-0.16715984 -0.29222503 -0.68094039
0.11604272 1.1384406 -1.0382278
0.41712999 -1.1929618 -1.1000905
0.5325262 -0.25052857 -1.3668715
0.58520317 0.75906777 -1.8800051
-0.016967485 -1.3102005 -1.0644759
0.60270512 -0.44097474 -0.47941601
-0.15207763 0.31708217 -0.71853101
0.20606256 0.80518603 -1.3683109
0.40419808 -0.3425664 -0.058372341
-0.5902946 -1.3429437 -0.95110738
-0.23522231 1.100377 -0.98972398
-0.19257303 0.80094457 -0.87089264
0.00093864056 0.5405848 -1.5389087
-0.59215021 -1.0870237 -1.0561579
0.030935781 1.1071754 -1.7179855
0.11561207 -1.2687848 -1.1000905
0.30470622 -0.81714022 -1.193083
0.37085995 0.68469924 -1.4437149
-0.26525271 0.44959503 -0.87519443
-0.26600459 -1.4028556 -1.0218949
0.22179648 -0.12691116 -1.6325988
0.25246879 -0.63447666 -1.1000905
-0.65810829 0.70788503 -1.808743
0.088759601 -1.1050315 -1.4075465
0.34056076 0.17076077 -1.1499741
-0.49155271 0.82256436 -1.4945927
0.67620778 -0.80558115 -1.0094833
-0.21905722 0.82204723 -1.3334293
0.50520796 0.78892982 -1.4545184
-0.45317608 0.9447698 -1.5753536
-0.40602547 -0.39843565 -1.2912402
0.69645154 0.70295876 -1.7884004
-0.3387531 0.075735532 -1.1483064
0.0054900548 0.073835328 -1.2421229
-0.37309787 -0.34490258 -1.4836154
-0.27562538 0.77681267 -1.186265
-0.54565555 0.99469793 -1.738711
-0.54411751 -0.76052386 -1.9501659
-0.16388257 -0.64854395 -1.1000905
0.63450193 -0.95622283 -1.9696261
-0.49169213 1.2141401 -1.5816557
0.070560813 -0.79622579 -1.6008124
-0.34020489 1.0791645 -1.1317836
0.59773993 0.67144537 -1.3325779
-0.52727222 0.10243273 -1.1424601
0.10250694 0.69835669 -1.5470468
-0.30846214 0.68622649 -1.2651883
-0.62924105 -0.42715383 -0.84997237
-0.64531964 1.229692 -1.8660142
-0.32072139 -0.34592792 -0.66336232
0.66780919 0.99954075 -1.5651755
-0.016001141 -0.41649526 -0.98718518
-0.50208777 -0.85768664 -1.7313918
-0.091500357 1.2706103 -1.3687248
-0.668136 -0.56891322 -1.0631651
-0.71306741 0.84000069 -1.6353616
-0.49408472 -1.3630965 -0.87180096
0.093535088 1.2211049 -1.5951488
-0.33849207 -0.26586169 -1.1525173
-0.037161276 -0.59453052 -1.6069629
0.044912878 0.21036188 -1.5812867
-0.38573167 -1.4001839 -1.0192693
-0.30577338 0.97803128 -1.2803922
-0.0024328455 -0.91323054 -1.6535268
-0.69773763 -0.88202691 -1.3440406
0.36397323 -0.3087084 -0.96724421
-0.49044421 -0.083988979 -1.6325988
0.10041333 0.59315121 -1.6076864
0.19941399 1.0185984 -1.3665917
-0.46592987 -0.48497194 -1.5985131
0.52388489 0.66511965 -1.0969821
-0.63230002 -0.36388335 -0.73242515
0.6650064 0.73553169 -1.1400501
-0.5821467 0.10327909 -0.082292512
-0.61881316 -1.1194179 -1.4461664
0.25645798 -0.37937868 -1.2322013
0.55213928 1.0727296 -1.6632891
-0.19189726 -1.2777878 -1.1000905
-0.26788428 -0.058585592 -1.1499622
-0.62078345 0.68285 -1.2921705
-0.46126854 -1.3332595 -1.1489741
0.39447442 -0.59341323 -1.537788
-0.36076292 -1.3102005 -0.93501556
-0.21856192 -0.2607156 -1.038113
0.072078802 -0.80481738 -1.4294988
-0.53347033 -0.41056752 -1.075684
0.58908808 0.7832886 -0.95816481
0.072007351 -1.1026454 -1.1000905
0.39742982 -0.55574304 -1.6530104
-0.11270821 -0.33732736 -0.80493867
0.67888671 -1.3050125 -0.95150185
-0.28821036 -0.38236713 -1.3508798
0.26942971 -0.25052866 -1.4174057
-0.2838231 -0.33306074 -0.82913518
0.36025253 -0.097601585 -1.6325988
-0.39437717 -0.5687747 -1.471259
-0.5284757 0.75664246 -0.89706928
0.73997116 1.0882148 -1.4948078
0.56127387 -0.86192 -1.7863575
0.193354 0.055118222 -1.2421798
-0.45234728 0.34030718 -0.69904304
0.59286237 -1.1389862 -0.96009934
-0.19497046 -1.0066515 -1.1000905
-0.31879845 1.311231 -1.3519458
-0.71096516 0.75400317 -1.4552666
-0.19240817 0.24395901 -1.5872257
-0.0062438264 0.36948538 -1.6325988
-0.37775928 -1.354643 -0.82308388
0.15447675 1.2335443 -1.1127889
-0.70672464 1.2663997 -1.5232154
0.66143698 1.2826627 -1.7749954
0.74490249 0.78103369 -1.5706096
-0.39175457 -0.33993432 -1.6124678
-0.24158978 1.1039604 -1.2076032
0.6397894 0.077618711 -1.4611664
-0.49192989 1.2278446 -1.7125332
0.42764658 1.2014037 -1.2498236
-0.19970202 0.91375303 -1.1663234
0.71156722 1.1113998 -1.3757257
-0.40348494 -0.94494677 -1.1489741
-0.18965971 -0.25052869 -1.3861527
0.10724909 1.1939003 -1.224365
-0.65039289 -0.66312468 -0.82308388
0.22483996 -1.3102006 -0.98566532
-0.0074933497 -0.73294246 -1.1489741
-0.53305739 0.047964394 -1.6325989
-0.5206579 1.014313 -1.0172393
-0.37026718 -1.0930766 -1.1489741
0.4768922 0.6769135 -1.385464
-0.44538468 -0.22770092 -1.2421796
-0.1625476 -0.054564271 -1.2421798
-0.55091596 0.17732775 -1.2322817
-0.11759818 1.1919601 -1.224365
-0.54417855 -0.39837858 -1.3110137
-0.69767106 1.3017908 -1.6545726
-0.23946005 0.080283217 -1.2421798
-0.1145801 -0.83396572 -1.1000905
-0.15817609 -1.3102006 -0.97394121
0.56146854 -1.2490543 -1.1489741
-0.58010983 0.94936562 -1.9736661
-0.37948659 0.014987469 -1.6579123
0.52483362 0.15381196 -1.6325989
0.46494189 -0.38889644 -1.3432866
0.58136809 0.071551681 -1.2131839
0.45756072 0.63757634 -0.87179029
-0.21874098 0.59737527 -1.5052779
-0.48981735 -0.88690054 -1.4174702
0.084015347 1.0962017 -1.6124678
-0.5473423 -0.44792044 -1.1934104
-0.53473336 0.66362774 -1.5718433
0.71904802 -0.66755986 -1.8693602
-0.45321274 1.0773191 -1.7325699
-0.53808987 -0.17660445 -1.1470915
-0.62387866 -0.040277258 -1.6325989
-0.12018035 0.99532443 -1.2185987
0.58449012 0.55595022 -1.4924803
-0.12943877 1.1038464 -1.719273
-0.65554661 -1.0195024 -0.91293687
-0.17266063 -0.33224773 -0.93391997
0.49015915 -0.65584219 -1.703899
-0.14621019 0.58565426 -1.0753692
-0.69555867 -1.1919264 -1.6543292
0.24566785 -0.28529137 -1.582265
-0.074992418 0.68751091 -1.1205916
-0.49226904 -0.63818425 -1.5285375
0.59045339 0.4872016 -1.6071571
-0.41050473 0.94860893 -1.4489994
0.39863679 -0.7595107 -1.5637282
0.13357458 -0.95791268 -1.612074
0.4852944 0.77203548 -0.89543039
0.56719369 -0.9768343 -1.733381
-0.083680794 -0.9350431 -1.3757472
0.45648706 -0.25841677 -0.87267691
0.54636782 0.99138868 -1.5447489
-0.36993974 -0.4892081 -0.92505729
0.18926203 -0.36211914 -1.4300598
0.5965327 -1.1112409 -1.875993
0.08920794 -0.40970266 -1.0910796
0.47303894 -0.43706685 -0.82308388
0.63537532 -1.3475156 -1.1489741
0.67984992 -0.17308772 -1.6270343
-0.20588593 -0.75139731 -1.1489741
0.054359335 -0.40086383 -1.6069628
0.37831658 -0.50224066 -1.0341678
0.74278951 1.143979 -1.7836454
-0.21647418 0.68554664 -1.1037792
-0.53474712 0.34397811 -0.11095133
0.29806468 0.99880362 -1.6507128
-0.22125475 1.2452829 -1.2684176
-0.53721714 -0.052304193 -1.1465733
0.29499751 0.41521287 -1.602618
-0.55487728 1.2256731 -1.4534788
0.097835906 -0.29620802 -0.70396388
0.43296146 1.1161647 -1.5867777
-0.63230002 0.22463952 -0.082534336
0.36569726 -0.88012224 -1.1000905
0.0038209609 -0.62272751 -1.4509842
0.67751557 -0.5607571 -1.6696793
0.47411087 -1.314203 -0.82308388
0.44989276 -1.3048363 -1.1386166
-0.74185866 -0.76316607 -1.8681639
0.2305185 -0.62272733 -1.5620328
0.42246127 1.3069923 -1.3115127
0.49643117 0.81390965 -1.5720954
-0.20380504 -0.34589148 -1.4819789
0.32311618 -0.34097901 -1.4901085
-0.62606817 0.80828887 -1.3893864
-0.11809521 -0.62272745 -1.3927395
0.084221385 -1.3373395 -0.82308388
0.72819811 1.1476245 -1.6513712
-0.037656285 -0.047719672 -1.2421796
0.29894873 0.69012332 -1.3408902
-0.52042562 0.67215848 -1.4137039
0.57779002 -0.027752163 -1.2884433
-0.55343878 1.0847677 -1.1258017
-0.31777203 0.33718085 -1.5950969
-0.49431571 0.82641089 -1.7769177
-0.5988543 -1.0804696 -0.82308388
0.65359503 -0.35596454 -1.3580916
0.5161438 1.2540962 -1.5279138
0.28507116 -1.1906449 -1.1489741
-0.3244369 -0.8411957 -1.3211861
-0.31644511 0.69248772 -1.4744233
-0.47585002 -0.29007971 -0.69310701
0.69579458 -0.02527817 -1.4025354
0.096996866 -0.3049815 -0.077175885
0.079470396 -0.82613844 -1.1000905
0.12975742 0.77656895 -1.6579123
-0.24280292 0.5760619 -0.83354586
-0.62698245 -0.82859689 -1.1489741
0.07216242 -0.52643514 -1.6552253
0.39742959 -0.37740478 -1.6127212
-0.2065354 1.0156325 -1.3412538
0.14683756 -0.5714606 -1.1000905
0.57302654 1.0441525 -1.3475648
0.017358772 -0.37302893 -1.3568692
0.54136854 -0.50574577 -1.0635126
-0.50939953 -0.72766054 -1.615479
-0.011286903 0.95772231 -0.9459247
0.062639564 -0.94553733 -1.2877872
-0.48770079 -0.35776669 -0.086056031
0.33753449 -0.3329581 -1.1533444
0.56719369 -0.85452616 -1.5355837
-0.17182581 0.20943341 -1.1704495
0.57489771 -0.29863364 -0.8524003
-0.63907707 -0.17205906 -1.4092419
0.48977521 -0.95080221 -1.4593961
-0.49138099 0.78190124 -1.641287
-0.72519577 1.1120381 -1.9216301
-0.31241065 1.0091395 -1.691807
-0.26525128 -0.41428396 -1.015653
0.27830854 -0.62272727 -1.3389438
-0.33254176 -0.22705829 -1.6579123
-0.08254578 -1.3686993 -1.1489741
-0.44296557 0.19190699 -1.1588719
-0.69173515 -0.84452343 -1.7940838
0.16972317 0.97878951 -0.96311557
-0.0031025456 1.2564276 -1.255239
0.051155929 0.79852664 -1.4965637
-0.67519855 -0.86588788 -1.0096717
0.022071127 0.91375303 -1.1797113
-0.12751773 -0.52804089 -1.1000905
0.65819508 -0.59101182 -1.1356304
0.0087395385 -0.2746183 -0.78079289
-0.48956108 -0.98418576 -1.8619426
-0.50821269 -0.11817008 -1.2466239
-0.45209587 -0.41738957 -0.9756729
-0.28591797 -0.62272727 -1.266932
-0.13766544 -0.65185994 -1.6413627
0.42644006 -0.25052863 -1.3061482
0.07220795 0.61199415 -1.3005369
0.4912852 -1.1085268 -1.7953919
0.47768867 -0.40862808 -1.1102055
0.55268186 -0.74329948 -1.1000905
-0.65554661 -0.6524353 -0.96759474
-0.16063412 -0.40303817 -1.2347531
-0.46964914 -1.1678714 -1.1489741
-0.3470768 -1.398075 -1.1386955
0.48279536 -0.47956437 -1.528479
0.12352289 0.10851652 -1.655992
-0.033967823 -0.44527394 -0.82308388
-0.13372143 -1.3157473 -0.82308382
0.5168578 -0.58371562 -1.5888003
0.56719363 -0.77866256 -1.6989499
-0.65322161 -0.69392741 -1.1489742
0.24012086 -1.0184262 -1.2905383
0.19783349 -0.41475189 -1.009629
0.36351687 0.30537575 -1.6579123
0.25981286 -0.75951064 -1.6723173
-0.59914058 -1.1877694 -1.7409024
-0.59215021 -0.77502388 -1.0297699
