# .PCD v0.7 - Point Cloud Data file format
VERSION 0.7
FIELDS x y z
SIZE 4 4 4
TYPE F F F
COUNT 1 1 1
WIDTH 1253
HEIGHT 1
VIEWPOINT 0 0 0 1 0 0 0
POINTS 1253
DATA ascii
-0.054743975 0.015663655 0.089823291
-0.020119565 0.0044887341 0.0099999961
0.054176971 -0.0031230554 -0.13944569
0.064115718 0.0019004606 0.067256369
0.0499731 0.0049999994 0.0079368353
0.10227334 0.014190641 0.012384613
-0.093173683 -0.0020858007 -0.0099999961
0.070005752 -0.016885277 -0.11587982
0.021325612 -0.0096555203 -0.093632191
-0.03990582 -0.0022696108 -0.14465654
-0.099409617 0.0051634004 -0.11050905
-0.11673152 0.01469074 -0.075806148
0.073531069 -0.014690159 0.073313147
0.077606954 0.0063961549 -0.05425144
0.0088929487 0.0049999994 0.014016507
0.032160822 -0.017336087 0.12889324
0.14081176 -0.0058136708 0.046749573
0.041949943 0.0080822324 0.14146695
0.013551675 0.012485299 -0.14193836
0.047366265 -0.016403995 0.12815022
0.007200215 0.0050000008 -0.024729263
-0.11224164 -0.019133447 -0.043554094
-0.13183546 0.017345414 -0.016586816
-0.075573422 -0.011496842 0.12271558
-0.076001391 -0.018419052 0.087955177
-0.067299239 -0.016789297 -0.11821242
0.030513488 0.0018759768 -0.0099999961
0.0037217694 0.0050000008 -0.016201202
0.10337467 -0.010922837 -0.10187425
-0.028528303 0.018587776 0.12238865
0.11202846 0.017736968 -0.067088552
-0.029965593 0.016891822 -0.13189495
0.085060641 -0.0071963393 -0.04229157
-0.044732578 0.018137604 -0.12014943
-0.14719701 0.0070327241 0.015114286
-0.10702409 0.018049879 0.039834891
0.024518663 -0.01698773 0.1324247
0.079937816 -0.019305225 -0.091552854
-0.062620074 -0.010724088 -0.074904285
-0.095799789 -0.011166191 0.10821082
0.049411908 0.018943336 0.10854844
0.14150716 -0.011276713 0.028532878
-0.11908883 -0.018929357 -0.0045156609
0.13056266 0.017211821 0.02737489
-0.10893206 0.019122494 0.050927781
-0.1040838 -0.018384269 0.051307049
-0.022311077 0.018623486 0.11525915
-0.07545571 0.0051069586 0.056527525
0.08863581 -0.017265037 0.064809732
-0.092060447 0.018163066 -0.068837993
-0.097865231 0.010775723 -0.0004122665
-0.051946178 -0.0075591239 -0.13829827
0.096320502 0.003472968 -0.0099999961
-0.052994385 0.018534508 0.10420035
-0.0099999979 -0.0028612085 -0.081494763
-0.070990048 0.017694309 0.086891256
-0.014848874 0.0049999999 -0.0044544898
-0.026877249 0.0028111972 0.089311048
0.001847988 -0.0050000008 0.014178781
0.0023747247 0.01759515 0.13134965
-0.095593125 0.015461213 -0.043088179
-0.10964935 -0.017745346 0.025023259
0.11889204 0.018947477 0.034168746
0.088921502 0.016805179 0.10250486
-0.11102256 -0.010508169 0.094107918
0.13606705 -0.010230798 0.053184971
0.07631208 -0.0089091454 -0.058028411
0.10772516 -0.018817687 -0.0494725
-0.040046513 -0.018921399 -0.11216424
-0.082941666 -0.012377709 -0.056068506
0.087143712 -0.0020288376 -0.12206146
-0.04445276 -0.0064671775 0.083664283
-0.0093151005 0.017174587 0.13328145
-0.069812447 0.019076707 -0.10108384
-0.053343721 -0.019121405 0.11036953
-0.042992674 0.010243667 -0.13950624
-0.091433115 0.019135194 -0.081534751
-0.012726411 -0.015448346 0.13748674
0.042712916 -0.0030757405 0.14335755
0.059866007 -0.01911471 -0.10447507
0.035476953 0.016802931 0.10104632
0.077762559 0.018231262 -0.10152988
0.14261541 -0.0082584191 0.038343795
-0.038691342 -0.018486794 0.11002512
0.12823549 0.01285295 0.06093752
-0.072571173 -0.010951892 -0.065804735
0.10257015 0.017174363 -0.085676298
-0.051076218 0.010051786 -0.13706969
0.086290985 -0.015803445 0.10719084
-0.013267036 0.017684853 -0.11145262
-0.0073914845 -0.0050000036 0.092273459
-0.093173414 0.0096132541 -0.023543943
0.14913517 0.0032409176 -0.0091153961
-0.12450833 -0.0098457746 0.077399783
0.0082279788 -0.0117536 -0.098839961
-0.0078664012 0.010319094 0.14560495
0.1224178 -0.018449429 -0.032397605
0.0099999988 0.0046772603 -0.052408718
-0.056224801 0.010591498 0.079577513
-0.12284572 -0.00068730908 0.086951733
0.098949857 -0.018534292 -0.062311187
-0.1033457 -0.019201355 0.06253168
-0.088664271 -0.019171536 -0.081655726
-0.033860754 0.0049999994 0.008432148
0.020325053 -0.004916444 -0.0099999961
-0.12310421 0.0022314514 -0.085434839
-0.012643481 0.018263843 0.11477935
0.11868929 0.018943194 -0.034841549
0.058812313 0.014932027 0.085769758
0.11014435 0.01874808 -0.042943347
-0.0099999988 -0.0020882685 -0.067618892
-0.057483699 -0.018071204 -0.1149589
-0.062791258 0.01383726 0.12565604
-0.084902145 -0.018216906 0.07774654
-0.14121172 0.0055708131 -0.045878332
0.0056105377 0.012038601 0.14313808
-0.11138764 0.018096849 -0.064379394
0.068383902 -0.019108199 0.10182388
-0.12305024 0.018899672 0.016047753
-0.12022962 -0.019125931 0.00413115
0.10843698 0.012075124 0.093450114
-0.081440859 0.016571192 -0.10953479
0.084917977 0.0042236559 0.039848194
0.021622617 -0.017237239 -0.13156004
-0.12729536 0.0098824548 0.073034853
0.096913598 -0.001185766 -0.11484895
-0.01726442 -0.015037541 -0.10275573
-0.085047826 0.010526909 -0.11815505
0.082243294 0.019109098 -0.087678671
0.12182111 -0.015008363 -0.066549972
-0.075256139 0.017164536 0.11046967
-0.028602468 0.014273142 0.099052265
-0.1433223 0.011869011 0.0067348341
-0.14113066 -0.010690667 0.034984011
0.10221173 0.01656393 0.030108746
0.0015940918 -0.0049999966 -0.081361994
0.086900286 -0.012985965 -0.051805295
-0.080961831 -0.014668101 -0.064789258
0.095596507 0.016894707 -0.0959768
0.10814798 -0.019076476 0.051928483
-0.028924759 -0.010083728 -0.092229709
-0.1508131 -0.00014712864 0.0027481879
-0.060834758 0.013762712 -0.12674701
-0.13276888 0.015929095 0.036001842
-0.068403028 -0.016163325 0.11895327
-0.12187496 -0.01904227 0.017918147
-0.02371875 0.0018274758 -0.14820722
0.096192598 0.019159045 0.075902723
-0.11624175 0.010106914 -0.089058436
0.089906231 -0.018817592 0.077199608
-0.052713595 0.0013997395 0.0099999961
0.09905082 -0.0078592636 0.10936581
-0.036755856 0.0080008572 0.088155255
-0.056529701 -0.002901034 -0.0099999961
0.091515124 0.018656332 -0.085554019
0.076471679 0.011478019 0.12214974
0.1022395 -0.01488787 0.018695487
0.055800796 0.017765323 -0.097959653
0.038789924 0.0021017196 0.084477916
-0.029957294 0.019093182 -0.11645012
-0.00070980354 0.018025581 -0.11420931
-0.0012564148 0.010868354 -0.14520301
0.065212078 -0.0010753828 -0.065848716
-0.071612343 0.010217462 0.065207899
-0.041354559 -0.010238374 -0.087611809
0.10614032 0.0099302875 0.10100491
0.056342416 -0.019039426 0.10573734
-0.10014531 0.019098438 -0.066272326
-0.022934176 0.010961642 -0.09532211
-0.030989064 0.017154202 0.13017642
-0.0059490064 0.018601671 -0.12540336
0.10522804 -0.0095708231 0.10271365
-0.094148427 -0.017702501 0.09074346
0.11213893 -0.011699351 -0.090093568
0.03388378 0.017065786 0.13011116
-0.048347171 0.0093077878 0.08297579
-0.088630587 0.00077282166 0.026303561
-0.082965247 0.0027265418 -0.042431705
-0.061917897 -0.018968455 0.10709608
0.069584131 -0.010097026 0.12863408
0.10300513 0.016324945 -0.02602363
-0.11623836 0.01685104 0.069818176
-0.053471979 0.017779021 0.11878212
0.13446482 -0.013960483 0.040298685
0.12708813 -0.010990159 0.069654882
-0.098664775 0.011495778 -0.10503308
0.043508183 0.014270868 0.093372136
-0.11884196 -0.018998135 0.033423882
-0.085042603 0.014979858 -0.060031228
-0.094919212 0.012559371 0.10617127
-0.10593452 0.00028995579 -0.10742231
-0.019939598 -0.010464352 -0.14447328
0.11146823 0.017643405 -0.0094401613
0.11122388 0.018175174 -0.029584197
0.10669472 0.017374204 -0.078768685
0.10385235 -0.01702543 0.031130377
0.009933955 -0.0050000027 0.066895865
-0.071280949 0.0050000004 -0.0095287776
0.1065565 -0.016744299 -0.084824339
0.054495387 0.018919336 -0.11107749
-0.12215517 -0.018826246 -0.022780042
-0.11238316 -0.017862866 -0.014483066
-0.019807862 0.0074730641 0.14664474
0.041743882 -0.0085996967 -0.1413147
0.051214233 -0.0043900311 0.0099999961
0.04115263 -0.0049999999 0.00026551075
0.14173962 -0.0011850616 -0.049870625
-0.051508185 0.012078198 0.13367587
-0.11507814 -0.019219033 0.040620144
-0.026048221 -0.0035300124 0.0099999961
0.1178398 -0.018620843 -0.043023024
0.084995009 -0.0049999999 -0.0053922608
-0.054956183 0.018869482 -0.10534789
-0.12534343 0.018130561 0.026945371
-0.071229577 -0.0039632474 -0.060857132
-0.13462919 -0.012113213 -0.048534565
0.015028063 -0.0032232164 -0.14875486
0.020617908 -0.015937647 0.10348121
0.0099999988 -0.0017533632 0.091319665
0.12355356 0.017480671 -0.046277668
0.14634703 0.0068549034 0.022592878
-0.054486338 -0.016825713 0.092541531
-0.035009336 -0.00047991687 0.0855496
-0.043891162 0.0073196851 0.14113539
-0.10235015 -0.018288605 0.075950414
0.0056669698 0.019008882 -0.11946467
-0.08829388 0.0090928739 -0.03747857
0.067664608 0.0049999999 -0.0037444613
0.11582536 -0.018475574 0.015016392
-0.074783824 -0.0030512027 0.056028619
0.088179573 -0.0025617566 -0.029894974
0.09122999 0.01034038 -0.033081338
0.075294182 0.0042351829 0.056131311
-0.0099999988 -0.001632282 0.013634861
0.024162052 0.0053524417 -0.14665774
-0.080089644 0.0017145326 0.047109723
0.10596281 -0.017364092 -0.030879522
0.012808938 -0.013180401 0.10070933
0.054156035 -0.00096875528 -0.075016752
-0.032299869 -0.019129217 -0.11603668
-0.037241131 -0.0033298349 0.14489461
0.10793956 -0.017645761 0.074137747
-0.10791373 0.012433179 0.09322276
-0.032721851 0.016742146 -0.10161798
0.14933351 0.0040913131 0.00080304034
0.13294263 -0.0085729528 0.063333124
-0.029027635 -0.010208683 -0.14306112
-0.038806736 0.014526186 0.095993869
0.089946464 0.0034835092 0.0099999961
-0.07127896 -0.016671022 -0.079312831
0.11580931 0.018305825 -0.00056345313
-0.093278989 -0.0095591489 -0.022900406
0.078887798 -0.0097959833 0.12360494
0.0046332153 0.0050000027 -0.061382294
0.094109632 0.018461468 -0.068812758
-0.02942346 0.0077541671 -0.14461559
-0.0054031359 0.0050000027 -0.066310398
0.12208073 -0.0077493386 0.082928494
0.083223365 0.016499145 0.10847522
-0.11260526 -0.015847845 0.078821242
-0.14587088 0.00058318174 -0.03805745
0.029389197 0.0049999999 0.004501564
0.054370038 0.0019423455 0.075349852
0.086378589 -0.011569102 -0.11536397
-0.1109106 0.017444052 0.00068736298
-0.063518144 0.0099569056 0.072568357
-0.037698645 -0.0049999999 0.0034879253
-0.002294268 0.0049999971 0.059314243
0.037345368 -0.016781658 -0.10028487
-0.050378192 -0.015093068 -0.12922841
0.071864747 -0.018111743 -0.089268297
-0.11463749 -0.014763813 -0.078740492
0.0099999998 -0.0044214725 0.034166813
-0.12313487 0.006971668 0.081919998
0.039790131 0.019323185 -0.114654
-0.075617105 -0.019087311 -0.096983366
-0.0030724886 -0.011950414 0.099477142
-0.048113465 -0.018265797 -0.10491069
-0.13040301 0.0014177917 0.075060472
-0.097640157 0.011650001 -0.016634423
-0.091398835 0.0021988486 0.017013334
0.062407427 0.0095901126 -0.13293801
0.099846318 -0.017092953 0.043366238
0.0007749307 0.0050000031 -0.079395942
0.0099999988 0.0041755717 0.040583663
0.04984365 -0.0049999994 -0.009810484
-0.0099999988 -0.00070746447 0.057006899
0.051176071 0.0043867463 -0.0099999961
-0.10628144 0.019161154 -0.056797609
0.067640096 -0.017888825 0.11062568
0.00417767 -0.0049999999 -0.00038365088
-0.093186162 -0.017985735 0.065345705
0.080805644 0.018406373 0.083646506
0.080968007 -0.011429663 0.056432977
0.11669226 -0.0078768404 0.090685785
-0.11192468 0.018275276 0.061023653
-0.14499226 0.0077805468 -0.027474716
0.12867144 -0.0088661183 -0.071724743
-0.13167866 0.0090444181 -0.065462887
0.14980534 -0.0015533585 0.0093816565
0.10943699 0.013728795 -0.088504165
-0.06035161 0.010620087 -0.07668376
-0.14118829 -0.0077701481 -0.043165557
-0.034696344 0.0073468634 0.14373557
-0.0099999988 0.0033280221 0.045804653
-0.093844399 -0.0075800726 -0.11408269
-0.10511918 0.016051779 -0.012144286
-0.097666845 0.016886204 -0.093742393
-0.081150271 -0.010434311 0.053441711
0.099979572 -0.0049999994 -0.0091334265
0.12327915 -0.00039151363 -0.086519524
-0.10136212 0.01888923 0.071306869
0.073062956 0.012133855 0.06796404
-0.062565289 0.0049999994 0.0069404561
-0.10204659 -0.018969065 -0.069468737
-0.093136162 -0.0093661686 0.023216248
0.083148554 0.016586153 0.066709854
0.10120138 0.016738165 -0.033907603
-0.11919975 0.01873371 -0.037028305
0.096503913 -0.013496814 0.032444939
0.066257305 -0.018500784 -0.096084952
0.095175914 -0.010815163 0.022529885
0.10218811 0.019203687 0.064287916
0.015871171 0.0021798164 0.0099999951
-0.03834413 -0.0049999994 -0.0093679046
-0.049004037 -0.017395174 0.09897428
0.0052617798 0.010023255 0.096403159
0.022938317 0.019139672 0.12031399
-0.13034703 -0.017229538 0.027944738
-0.13245586 0.002248317 -0.070134215
-0.099939734 -0.013552118 0.019867921
-0.099940702 -0.0049999999 0.0040072859
-0.020442244 0.016889839 0.10562103
0.00048987847 -0.0067751952 0.1482605
-0.14304307 0.0038947281 0.04260353
-0.0093507878 -0.004999999 -0.025010608
0.07074827 -0.00054101093 0.13292705
-0.12799202 0.0077441582 -0.074085474
0.041895553 0.018928031 0.11157623
0.027853072 0.018787576 -0.12136941
-0.10574862 -0.019309228 -0.06030909
-0.12015015 0.018119257 -0.045053557
0.14815886 -0.0068587041 -0.0015209015
-0.12888348 0.013867759 -0.056142025
0.040356293 -0.018940501 -0.11217329
0.14642996 -0.0098634288 0.0058510602
0.098153248 0.0017033942 0.0099999961
-0.0093576023 -0.016583903 -0.13598078
-0.11537191 0.018929541 0.044854715
-0.14735509 0.0082261618 -0.0052831145
0.035210323 0.015037782 -0.098034464
0.045536458 0.018068878 -0.12028755
0.087367825 -0.019146694 0.086071536
-0.10641624 -0.00091893791 0.1066597
0.13378036 -0.016451731 0.027128179
-0.12998825 -0.017179234 -0.031208482
-0.0053235535 0.0049999962 0.089361683
0.12955727 -0.017760443 -0.015409864
-0.12022518 -0.018101741 -0.045141034
0.099408939 -0.016569344 -0.038391098
-0.10206145 -0.017449692 -0.043441989
0.020319233 0.017554758 0.10948464
-0.032174073 0.010784015 -0.09224885
0.061696365 0.016096083 -0.12237443
0.13541907 0.0086167399 -0.058271088
0.10743527 0.019152584 0.054348197
0.08145795 0.0043601859 -0.0099999951
0.14700626 0.00042880632 -0.032671213
-0.0010964154 0.0019764404 -0.15017603
-0.034871772 -0.011278031 0.14024429
-0.012536957 -0.018564444 0.12518281
0.055516824 -0.018388921 -0.11392277
-0.089150302 0.0049999999 -0.0090388926
0.13893725 0.0064808428 0.051427737
-0.056173638 0.017282598 -0.12058432
-0.065775231 0.002132352 -0.13465804
0.04480106 -8.5015454e-05 -0.1439328
-0.070973158 -0.013178571 0.072532475
0.14252096 -0.0052273925 -0.042455897
0.044889234 -0.019125599 0.11174147
-0.11657281 0.0013292033 -0.094859496
0.087414786 0.012289047 0.048789397
0.099999987 0.0013813449 -0.00097203767
0.023230243 -0.018899782 -0.121641
-0.12965125 -0.017896306 0.0022122571
-0.090782925 0.018251505 0.071338043
0.0087384963 0.0028538401 -0.14931762
0.039963976 0.0049999994 0.009751074
0.12414201 -0.0096722161 -0.078422025
0.0056552431 -0.0035349894 0.1
-0.10383871 -0.017400037 0.037770119
-0.095282629 -0.012559125 -0.03161633
0.13031761 0.017618189 0.016126232
-0.11690857 0.01858497 -0.0079617342
-0.050609533 -0.0074780001 0.13878681
0.03913568 -0.014318554 -0.13428584
0.13207267 -0.010045054 -0.062789693
-0.070509344 0.0017168219 0.13251182
-0.02063971 -0.0022343979 0.14865099
-0.12892911 -0.012636963 -0.06027209
-0.10584669 0.017075717 -0.024703141
-0.078855395 0.010331962 -0.056596696
0.054135878 0.013764812 -0.086764365
0.031366833 -0.019191049 -0.11672314
-0.091448739 -0.0049999999 0.0040246267
0.034106489 0.015502136 -0.13386142
0.0059743188 -0.018776918 -0.11812818
-0.084173515 0.017619159 0.10053781
0.0028915007 -0.0050000018 0.045346834
0.0082620978 0.0049999966 0.082105517
-0.038331401 -0.017111 0.10191964
0.13711628 -0.015848132 -0.0091037843
0.14682271 -0.0078054462 0.016021162
0.095127776 -0.018709738 0.069819607
0.065103345 0.018238952 -0.095072664
0.12387703 0.014133711 -0.065381676
0.09395247 0.0097257961 -0.02020767
-0.14558673 -0.010410529 -0.0060233045
-0.14036454 -0.011525668 -0.032340992
-0.074435182 -0.00013012894 -0.0544127
-0.018043078 0.0091750901 -0.14613214
-0.019094329 0.018171996 0.12666583
-0.083381496 -0.0049748248 -0.12313474
-0.091031834 -0.017522445 -0.063847624
-0.012636991 -0.0049999994 -0.0076583759
-0.0055910349 0.0050000027 -0.056946054
0.082066067 -0.0044231243 0.045814641
-0.098120749 -0.011485222 -0.012936727
0.11699865 -0.017044466 0.066493534
-0.11891212 0.017779654 -0.053200331
-0.0094026355 -0.018343348 -0.11544295
-0.0014108793 -0.012929165 0.14205918
0.14138441 -0.012677901 -0.017534671
-0.075317353 -0.010575305 0.061806638
0.027312031 -0.014645169 -0.13653868
0.12642278 0.018365167 -0.010872899
0.028456803 -0.0040084207 0.14636061
-0.0048886891 0.004999999 0.013679928
0.013890583 0.01728943 -0.10916771
-0.024850804 -0.01876164 0.11555158
0.14008725 0.0083873719 -0.045628361
-0.005104335 -0.018516837 0.11670917
0.05065164 0.012261859 -0.13367237
0.084603667 0.0011507776 -0.037660763
0.11949333 0.0055919355 0.088379622
0.12679482 -0.014117725 0.059519876
0.13038944 -0.013599604 -0.054007981
-0.095035791 0.0088109653 0.012503957
0.0022034561 -0.0050000008 0.025024947
-0.0099999988 0.0017899266 -0.048915751
0.00031349188 -0.004999999 -0.012830864
0.082306758 0.018026892 -0.079074055
-0.072956041 0.010631921 -0.064629495
0.10076561 -0.018101573 -0.054416202
-0.061393972 -0.0039266939 0.0099999961
-0.095572278 -0.014212145 0.038566239
-0.10263046 0.014643779 0.014831527
0.0090822987 -0.004999998 -0.044740394
0.12768927 -0.01675762 0.04683248
0.13219328 0.0067846873 -0.066496506
-0.021652967 0.018516151 -0.11477026
-0.14626373 -0.0013403813 0.03450435
0.046479993 -0.013733316 0.090997122
0.094301984 -0.019318162 -0.076486506
0.096021317 0.0095936228 0.0023332329
0.055181365 0.009861052 -0.078941718
0.095706284 0.016961936 0.050083958
0.034329195 0.009969525 0.090212144
-0.057007127 -0.015310666 0.12601569
0.06382066 0.0099919755 -0.072373837
0.085678659 0.0049999999 0.0026307821
-0.093853489 0.017266635 0.09470392
0.061956115 -0.0073210346 0.072081611
0.0052435081 -0.0050000022 0.053997155
0.02391951 -0.018600484 0.12323207
-0.11154318 0.019291233 -0.04779337
-0.00097752409 0.004999999 0.023487397
0.0099999988 -0.0031622699 0.081210807
-0.12855646 0.018105911 -0.00076645595
0.10713499 -0.013671745 0.091260411
-0.028182782 -0.017455287 0.1073461
0.0099999988 -0.00077639322 0.048541684
0.061806321 0.010204232 0.074568748
0.12956029 0.017154744 -0.03407098
-0.040174432 -0.014956903 0.13291036
0.0070592351 0.004999999 0.024225354
-0.057584938 -0.012141634 -0.081497595
-0.058214363 -0.0049999999 0.0018834251
0.0037337013 -0.004999998 -0.034748014
0.038705841 -0.018931285 0.11744881
-0.063220404 -0.0072817863 0.070951641
-0.047779378 -0.0049999999 0.0037928841
0.077423334 -0.0013339645 0.0099999951
0.13025978 -0.01719488 -0.029389255
0.020073198 0.011548804 0.14276895
0.049275339 -0.0062140669 0.13978243
-0.067551643 -0.0035728167 0.064810261
-0.073246069 0.017603992 -0.084232442
6.1822124e-05 -0.0050000036 0.082085148
0.02391885 -0.00036961742 0.089266934
-0.071276963 -0.018417077 0.10459782
-0.095762692 -0.017534643 0.056891687
-0.12171312 -0.0080289477 -0.083274052
0.03672057 0.01777089 -0.1250622
-0.13188396 0.0090210494 0.065067992
-0.017389745 -0.018218655 -0.11390062
0.080246702 -0.015067987 0.066524953
0.12148143 0.019189514 0.014886959
-0.072863363 -0.00037981896 0.0099999961
-0.12475488 -0.016768744 -0.054295562
-0.14427298 -0.010038679 0.024257317
-0.014003785 0.018217603 -0.12705502
0.10984011 0.017611809 -0.020188075
-0.064390756 -0.0048992229 -0.0099999961
0.086944684 -0.0071207457 0.038401596
-0.0064606918 0.016716562 -0.10650261
-0.11365933 0.018329995 0.021834401
0.05402343 -0.0090580024 -0.079060912
-0.14587024 -0.0099341767 0.012748917
-0.039796211 0.017610343 0.10440868
-0.08577206 -0.018424755 -0.093068108
0.0046363403 0.01673968 -0.10665734
0.04766807 0.0082680359 0.082895063
0.0099999988 -0.0049538938 -0.07442154
-0.10635661 -0.017419808 -0.078809895
-0.010008404 0.015752267 0.10480376
-0.098792419 0.01772338 -0.053575121
-0.085000709 0.018633164 0.081209332
0.087618932 -0.0098330555 0.1177033
0.016455388 0.0070737945 -0.0935307
0.041577287 0.0091219507 -0.086285807
0.11720686 -0.017897693 0.055146914
-0.004335694 -0.004999998 -0.047214963
0.11396924 0.0049601062 0.09558937
-0.045663882 0.00087936874 0.080533914
-0.083581962 -0.015160974 0.062711902
0.021409353 0.0049999999 -0.0041700369
-0.075577199 -0.0049999994 -0.0098630628
-0.006321474 -0.010956243 -0.097752437
0.073568948 -0.006604895 0.059818547
-0.14154942 0.010143124 -0.037137356
-0.10621245 0.017168006 -0.081577741
0.091253132 -0.0038486102 -0.021184035
0.094694331 0.013605909 -0.10425637
-0.015785219 0.011285148 0.097244635
0.075917095 -0.01644909 0.11344847
0.066750668 0.015021243 0.12170035
0.1091738 -0.001481553 0.10320252
-0.087520033 -0.0055587138 -0.035628673
-0.072432011 0.011309256 -0.12515694
0.094787054 -0.00628709 0.00060941983
-0.10882771 0.017401058 0.07530272
0.11171937 -0.017835606 -0.017236637
0.0054763118 -0.014960172 0.10389631
-0.075642921 -0.018338716 -0.087664515
-0.11717869 -0.002436531 0.093485817
0.061610963 -0.0049999999 0.0015647733
-0.045406736 0.0095732501 -0.084601901
0.11122605 0.018351991 0.061458092
0.058666073 -0.017060377 -0.091347016
0.078030698 -0.0042851036 -0.0099999961
0.11969236 -0.01911252 -0.011166775
-0.10897034 0.011182256 -0.094896719
0.12213816 -0.018213594 0.037535176
0.012517104 -0.01932675 0.12085798
-0.10325142 -0.014558792 -0.0060032494
-0.031043895 -0.017048892 -0.1307735
-0.14854574 -0.0043319538 -0.011326169
0.068698093 0.0021920339 0.0099999961
-0.064614408 0.018495906 0.10851266
0.11617997 0.018892137 0.043133236
0.057243578 0.0049999999 -0.0029774427
-0.065567955 0.017126394 0.11693773
-0.0017666188 -0.017002774 0.13475133
-0.014448963 -0.014011101 0.10172774
0.03169037 -0.002303174 0.087459087
0.0051956754 0.0049999971 0.056524113
-0.097549334 0.01897059 -0.075974308
-0.085818827 0.015152935 0.10891774
0.094730735 -0.0099769337 -0.11154846
0.053648438 0.016993599 0.094148412
0.07311777 0.015090648 -0.074510701
-0.0099999988 -0.0045985966 0.023182437
-0.036627542 0.00055057841 -0.084841095
0.030497555 -0.010747952 -0.092760168
-0.044462506 0.0050000004 -0.0097001735
0.031892885 0.018210337 -0.11067958
0.061450221 -0.010119653 -0.074710354
-0.0099999988 0.00040219829 -0.097785547
0.066794619 0.016986994 0.085242994
0.13438062 -0.002146757 -0.066324577
-0.057528116 -0.019032409 -0.10510835
0.081752293 0.0035018981 -0.045604058
-0.1178586 -0.011397488 0.083113834
0.089399755 -0.01846211 -0.089605369
0.074226305 0.017473428 0.10905401
-0.030223196 -0.011604685 0.094226129
-0.074109502 -0.009417369 -0.12715772
0.12316716 0.019028945 0.0030704387
-0.036638089 0.01345801 0.13651261
0.054356799 -0.017358402 0.12100166
0.11768489 -0.018436527 0.046726562
0.11379009 -0.013328834 0.083927915
0.14647792 0.0028677015 0.030244526
0.14353856 -0.0077429758 -0.034861289
0.10496585 0.017670844 0.039220665
-0.086074173 0.012283075 -0.051121932
-0.08905077 -0.014661059 0.053161867
-0.081554741 -0.0076070973 -0.049229376
-0.00066169834 0.0027584133 -0.093345851
0.018003672 0.018195299 -0.12674826
-0.11664907 0.01145176 0.084775783
-0.10934231 -0.01798326 0.068598278
0.037084185 -0.0049999994 -0.0071220454
0.038847186 0.0096679386 -0.14183597
-0.065145895 0.016979635 -0.11807261
0.015615363 -0.012635563 0.14157459
0.027310565 0.013307166 -0.13860899
-0.089797735 -0.016875224 0.10120891
-0.11322354 0.017978093 0.01163839
-0.1063644 0.0074298652 -0.10273808
0.029884649 -0.019259553 0.11742518
-0.091890156 -0.0023954853 0.11860025
0.046356753 0.017530072 -0.10113157
-0.066830009 -0.0049999999 0.0027419536
0.064501077 -0.01530198 0.12233479
-0.034889765 0.018766632 0.11298914
-0.024217431 0.0049999999 -0.001923807
0.11387692 0.012827963 0.08516591
0.0036332957 -0.014865664 -0.1389688
0.037588205 0.0049999999 -0.0010144741
0.030630719 0.010576934 0.14217253
-0.0057231877 -0.0049999985 -0.036320239
0.067800142 -0.0165901 -0.082200363
-0.14164937 -0.013080643 0.0041486514
-0.038482685 0.0049999999 -0.00013729185
-0.080577694 0.0049999999 0.005066142
0.10380162 0.01743554 0.082028925
-0.12912712 -0.0016512398 -0.076845564
0.00088748877 -0.018699553 0.1251796
-0.0034137052 -0.015697973 -0.10515344
0.05188287 0.016743185 -0.12606128
0.060397319 -0.0049999994 -0.0092086671
0.13532513 0.0043215109 0.062410127
-0.0099999979 -0.0031843355 0.032220822
0.01239186 -0.017430682 0.13162647
-0.13210046 0.017392654 -0.0084527787
-0.0099999988 0.0039939405 -0.090052642
-0.088133931 -0.010626443 0.041627128
-0.055529878 0.0023522864 0.074775323
0.11649313 -0.018985508 -0.026615687
-0.1094534 0.0184501 -0.039729115
0.013982051 -0.0026300978 0.14906511
-0.038044006 -0.013250789 -0.13636738
0.00042515161 0.018360566 0.11612909
0.058352843 -0.011972802 0.13099924
0.096786827 -0.017165551 -0.092346594
0.11995757 -0.019070102 0.026749747
-0.047117483 -0.00058904372 0.14293009
0.10487428 -0.017034154 0.084253237
-0.0093480684 0.013393546 -0.14083275
-0.03733056 0.014048612 -0.13533114
0.10958639 0.019161688 -0.054416016
-0.067169674 -0.010297732 0.12948519
-0.0099999998 0.0047071418 -0.072923958
0.070767492 0.00070294971 -0.0099999961
0.13257934 0.00059187232 0.071406521
0.036224805 -0.0046002893 -0.086875565
0.091005042 -0.017074779 0.09864708
0.019679645 -0.017884996 0.11151858
0.022722302 -0.0059839063 -0.14668237
0.11188503 -0.0031409198 -0.09908773
0.060599588 -0.0041366457 0.0099999961
-0.065783352 0.01817859 -0.10989282
-0.13551337 -0.0077512087 -0.05887562
0.10044427 0.013340904 -0.015688738
-0.11785887 -0.019119624 -0.034179598
0.089072593 0.019066516 0.084816195
-0.083075404 0.011182018 0.11827748
0.034307078 0.0016415454 0.1461781
0.10916156 -0.017247621 0.010364543
-0.12608057 -0.0098500559 -0.07503514
-0.0099999988 0.0027972399 -0.015635066
-0.14737341 -0.0010083988 -0.029617526
0.053027093 -0.0049999999 0.0015660082
0.059706315 0.017554227 0.11712704
0.023455385 0.017894346 -0.11082152
0.10075904 0.017694673 -0.049219657
-0.14847328 0.0038508682 -0.015422341
-0.036062736 -0.017369861 -0.10423788
-0.060504906 0.0064565944 0.13529676
0.12939362 0.0090180337 0.070120625
0.1117622 -0.017978102 -0.065029129
0.11872257 -0.017323619 -0.059423547
0.074730583 0.0031148151 -0.1297964
0.047419105 -0.010331289 -0.084778309
0.0076819016 -0.01030509 0.14563838
-0.0471077 -0.01310659 0.089627236
-0.0099999988 -0.0040686266 0.049615551
0.031529684 -0.010359128 0.14233069
-0.039257597 -0.018406384 0.12040059
0.064298809 0.019027743 0.10098255
-0.082331076 -0.018474091 0.095714211
0.006952805 -0.0013831474 -0.09237317
-0.099999987 0.003652205 0.0088927438
-0.062291168 0.017564269 0.092356667
0.0099999988 0.0033110012 -0.035906583
0.065644309 -0.0065687974 -0.13271143
-0.0022025257 0.0049999971 0.071675964
0.021150477 -0.0049999999 -0.0017008716
-0.086396895 -0.011784157 -0.11495924
0.092098504 -0.010567334 -0.031594142
0.0099999988 -0.0030665724 0.017586725
0.029380606 0.008697819 -0.090988785
0.031651631 -0.0033525834 0.0099999961
-0.036137938 -0.01366601 -0.095521443
0.091762893 0.017618995 0.063737653
-0.10492814 -0.010817129 -0.10034622
-0.028438579 0.017667221 -0.10851892
0.10058552 0.0080005238 -0.1079435
-0.0030412776 0.004999998 0.049463801
-0.0043506101 0.0014634239 0.15017176
0.10062644 -0.013464492 -0.015734117
0.13220459 0.01345779 -0.049330089
0.068229049 0.018909961 -0.10327751
-0.092723012 0.018560182 0.085002437
-0.029062932 3.5783625e-05 -0.0099999961
0.058768384 -0.015060895 0.086034268
0.08768063 -0.016824067 -0.10345088
0.10389126 -4.5403842e-05 0.10934643
0.05945193 -0.015070135 -0.12521699
0.072802991 0.013145265 -0.12155849
-0.066382237 0.0092880595 -0.13111478
-0.0099889776 0.0049999985 0.034988154
0.14407066 -0.0099493973 -0.025968896
-0.14331222 0.011595125 -0.013242687
-0.0040164692 0.0049999999 0.0027755641
-0.0045894869 0.01902928 0.12306569
-0.13599798 0.0022692813 0.062932193
0.12151317 0.019026941 -0.020181911
0.060130816 0.0049999994 0.0055446462
0.093801096 0.0078443093 -0.11397781
0.093157843 0.012789333 0.038859975
-0.13423444 0.01512793 -0.035141516
-0.018323511 -0.016929422 -0.13399358
-0.042832289 0.019183801 0.11453787
0.13742955 -0.0066571119 -0.055646386
0.068537921 -0.01847462 -0.10603604
-0.0061049731 -0.0050000027 0.066336378
-0.047166444 -0.018693939 0.11599623
0.073095202 0.0084227258 -0.061479688
0.12977502 0.016770905 0.040453948
0.027379934 0.017343072 -0.12980387
0.025793504 -0.0016635646 -0.089186192
-0.10120855 0.01682758 0.090207301
-0.084660836 0.011024434 0.04979955
0.091662258 -0.012358773 -0.040415585
0.065995418 0.0011681345 -0.13498658
-0.045089293 -0.016263412 -0.095963478
0.0099999988 -0.0016350322 -0.08415322
-0.015018888 -0.017764935 0.11175244
-0.05345989 -0.0067679766 0.07831765
-0.087616794 0.018206997 -0.093090542
0.10710634 0.0072846138 -0.10198154
0.021207903 -0.0043983827 0.0099999961
0.10409462 0.019260379 -0.063434333
0.12321033 -0.019034619 0.0019206576
-0.00701772 0.0050000013 -0.032162115
0.12628683 0.0058241608 0.07804244
-0.0056991223 0.010862691 0.097650968
-0.058831818 -0.010896696 0.13258359
-0.14187726 0.00018117003 0.050734971
-0.029515963 -0.0049999999 -0.0020310481
0.0074232947 -0.016945247 -0.1076384
-0.13364252 0.017150877 0.0058595669
-0.0089676315 0.0049999966 0.077155136
0.064078256 0.016773198 -0.085774779
0.08881484 0.0050000004 -0.0050293924
0.094551705 0.011531714 0.10856758
-0.066549517 0.010193839 -0.070388094
0.013118896 0.015733467 0.13702743
0.0099999979 0.0039271647 -0.099112496
0.0038451557 0.010958187 -0.097917676
-0.048501331 0.014701835 -0.13049248
0.017217673 -0.018214447 -0.11391053
0.012542186 -0.0049999999 -0.0052694837
-0.0053930385 -0.00097339507 0.1
0.1199597 0.019170357 0.023828831
0.0068179681 0.019300271 0.12138173
-0.0083918804 -0.0084731933 0.14705071
0.026096988 0.0045964899 0.14658625
0.13067271 0.00076692953 -0.075111896
-0.12315463 0.015123036 0.063452505
-0.059111934 -0.013875496 0.083641447
0.051710468 -0.017301122 -0.097045824
-0.0724314 0.0049999994 0.0037192174
-0.14147036 0.012410276 0.019901343
0.043094695 0.017353455 0.12539481
0.075460225 0.018935716 -0.092321321
-0.094405621 -0.011840833 0.030809177
0.11293954 -0.017831955 -0.0033180732
-0.0079297246 -0.0050000004 0.0060585681
-0.075170636 0.0094676875 0.12642409
-0.020465527 0.016827537 -0.10525665
-0.05492118 -0.017325383 -0.095615655
0.11839001 0.0015408692 -0.092656828
-0.0083673345 -0.0050000036 0.081396334
-0.0098343818 -0.0050000018 0.040658865
0.076542735 -0.0050000004 0.001924707
-0.0099999988 -0.0049222643 -0.054929938
-0.083235629 0.017676499 -0.1009285
-0.1335908 0.013198725 0.046469346
0.013890939 -0.0082153352 0.094514012
-0.13341552 0.016841421 0.023784332
0.13541557 -0.016864156 0.0036341497
-0.1056137 0.017096782 0.082872137
0.025993992 0.0076217833 0.091676377
-0.10595862 -0.017037828 -0.023040671
-0.12203247 0.018860452 -0.022404011
0.10463539 -0.00010716507 -0.10866044
0.096923143 0.011862407 0.021891231
-0.025190448 -0.01885619 -0.12150279
0.1409272 0.01248807 -0.022026997
-0.06407661 -0.0019521422 -0.067318603
-0.11754929 -0.016967107 0.066367447
-0.10276019 -0.016932281 0.087538846
-0.09425696 -0.015716219 -0.046672571
-0.0047623352 0.0049999999 -0.0057391212
-0.058776047 -0.014007054 -0.12734887
-0.10942964 -0.017180033 0.00042252292
0.087083325 -0.017564807 -0.069658816
0.012160039 -0.017284965 -0.13246858
0.11947928 0.017075425 0.061066829
0.075443223 0.0049939854 0.12842956
0.10452995 0.013324385 -0.095030248
0.016809363 0.013254156 -0.10008715
-0.10461691 -0.0096430723 0.10336595
0.013037445 -0.0049999999 0.0063565737
0.13678169 0.012869943 0.038621381
-0.13778195 0.015254796 0.012713432
0.055863254 -0.017254598 0.094542541
0.13163899 0.017245788 -0.020977994
-0.13978663 -0.0017270927 -0.054938346
-0.1369935 -0.016092934 -0.0052975067
-0.060561337 0.018734943 0.10148564
0.12055045 0.012382063 0.076396056
-0.12920073 -0.017899323 -0.0088243401
0.0097193643 0.0050000027 -0.075034827
0.11760446 -0.014309045 -0.075542077
0.017978752 -0.016044607 -0.10417166
-0.0099999998 0.0045785895 -0.024417412
-0.099220052 -0.017903626 -0.055015828
0.014522729 -0.018980244 -0.12269291
0.019153379 0.017806098 0.12876669
0.049770132 0.0054888106 0.13992584
-0.13428652 -0.016832516 -0.019664094
0.10411391 -0.015032511 0.003834716
0.0099999988 0.0039974516 0.072190039
-0.026167169 0.005209187 -0.090581715
0.02587989 -0.010335919 0.093667395
-0.023080066 0.01412386 -0.13818699
0.028663147 -0.017160434 0.1054972
0.046393029 0.0012523875 -0.080342524
-0.095201433 -0.017494198 -0.091331743
-0.08613719 -0.017916216 -0.073755771
-0.099599004 0.015023087 -0.030531947
0.10920048 0.01718156 0.0040511778
0.0099999988 -0.0034354851 -0.054300241
0.034256652 0.001562136 -0.14622103
-0.016850643 -0.0050000004 0.0059281504
-0.049706437 -0.0048370869 -0.079881445
-0.090829566 -0.016829703 -0.10064685
0.0099999988 0.0019764749 -0.011551633
0.097317696 -0.012602341 -0.025662702
-0.14253092 -0.0043231212 0.043570325
0.088066049 -0.0050000004 0.0091680465
-0.054064672 0.011907997 -0.083423369
0.039635263 -0.016248487 0.098472461
-0.086317785 -0.0016226077 0.0099999961
0.14682244 0.0086470786 0.010793205
-0.080743268 -0.0038230724 0.12546079
0.029251106 0.01730359 0.10615378
0.0773267 -0.017645666 0.080967709
-0.13199525 0.012541076 0.054274268
-0.10230459 0.013913309 0.0054739211
0.12924317 -0.017941557 -0.0045201587
-0.049750812 -0.018301774 -0.1173165
0.089268938 0.0016822255 0.12081091
-0.12062435 -0.017055312 0.059002459
-0.10370897 -0.017089261 -0.032677341
0.14052963 0.013309019 0.015934039
-0.11144502 -0.0029422247 0.099711984
0.01237585 0.0049999999 -0.0034713328
-0.050493143 -0.01371908 0.13139111
0.10440291 0.01531242 -0.005919422
-0.095544383 0.011931047 0.027880356
0.082670286 0.012533784 -0.056900918
0.10447359 -0.019134516 0.060122535
0.072963081 0.017432787 -0.11017497
0.091821536 -0.0029945378 0.016546516
-0.025463372 0.012410985 0.14036289
-0.017171418 0.014460037 0.13869822
0.076575115 -0.0011920269 -0.051987194
0.027169345 -0.016730769 -0.10340507
-0.0020603617 -0.016775308 0.10702544
-0.054604836 0.0026356326 -0.075531952
-0.099999987 0.0024895815 -0.00087600295
-0.066958196 -0.018125515 -0.093060762
-0.13262123 -0.0034373102 0.068705954
0.127333 -0.017056607 -0.042614546
-0.025040131 -0.012392426 0.14047582
-0.020260058 0.0016282122 -0.0099999961
0.096150503 0.017804639 -0.059063353
0.063280672 0.018003307 -0.1125289
-0.0850638 0.0038404802 0.039200231
-0.082855746 -0.0064323884 0.046060376
0.0093324035 0.018058296 -0.12826526
0.048423573 -0.018618105 -0.10698229
0.052914336 -0.013255324 -0.13131234
-0.13715097 -0.0053010196 0.057807274
-0.0047896956 -0.0092798248 -0.14695813
-0.13023399 -0.017661398 0.013660973
-0.039046198 0.018092927 0.12234682
-0.097375847 0.018712232 0.078391016
-0.0084711211 0.0050000036 -0.081616893
-0.080701903 -0.0049999999 0.0034898873
-0.046111695 0.016238181 0.12884177
0.086839363 0.017034514 -0.065148599
-0.13759086 0.0067471494 -0.055057228
-0.014801573 -0.0023868002 -0.091916695
0.00090088538 -0.00070808112 0.092494771
0.045518715 -0.017993258 -0.12074576
-0.12728104 0.01762045 -0.032011479
0.079824038 -0.019047355 0.093594976
0.014064709 0.018522114 0.11615188
-0.064041398 0.016949952 -0.087003216
-0.13843782 -0.0092852516 0.049351834
0.10123133 -0.013197845 -0.0052493541
0.13672791 -0.010878552 -0.048180308
0.12284033 0.017512392 0.047819804
0.097400449 -0.010801158 0.0080934549
-0.08589644 0.0023979 0.12271437
0.032166805 0.019259872 0.11770339
-0.11047209 -0.0040107504 -0.10016248
-0.050434019 0.017103009 0.096424393
0.078339458 0.018233605 0.10102607
-0.069258511 -0.016754579 0.081331596
0.010845093 -0.017580952 0.11102173
0.063278779 0.018475007 0.10954745
0.091371439 0.010023991 0.031171139
0.03153776 -0.010403735 -0.14226006
0.0031409212 0.0050000018 -0.041022874
-0.0069678845 0.0050000013 -0.041612979
-0.02304271 0.0098004974 0.093504123
0.068233676 -0.0049999999 -0.002895887
-0.10718318 -0.016934605 0.013446396
0.087880053 0.0018818546 0.029917371
-0.12242398 0.015976679 -0.062005557
0.089610822 0.011386288 -0.041239142
-0.079703584 0.0043157567 -0.049591124
-0.02605713 -0.014671452 -0.13674761
-0.099009544 -0.012007257 0.011525305
-0.091331199 0.0025073241 -0.017996293
-0.093692198 0.0087794103 0.11356764
0.073553048 0.016589392 0.07715375
-0.040173855 -4.3535023e-05 0.0099999961
0.061448418 -0.0016014191 0.13703249
-0.14442088 0.0075253248 0.030879205
-0.13869487 0.013922554 -0.022092633
0.072682187 0.0049999999 0.002726699
0.07007321 0.0096250586 -0.12914182
-0.057671059 -0.00022562072 0.13950367
0.078375839 -0.017694946 -0.10477272
-0.061275244 0.014959836 0.084174827
-0.10993256 0.018067576 -0.031578448
-0.12253197 0.017469816 0.049478337
-0.059217911 -0.017666465 0.11665927
0.10998564 0.017450534 0.014775106
0.087486655 -0.01894713 -0.08107122
0.066288956 -0.018030865 0.092863239
0.050053079 -0.0098175164 0.082288861
-0.14131722 -0.0128846 -0.013764466
0.067374662 -0.0087178731 -0.068085067
-0.059773088 -0.0038895865 -0.13682136
0.086993232 0.012212122 -0.049380314
-0.13827915 0.008325248 0.051033583
-0.050708059 -0.013173563 -0.087965056
0.01526398 -0.0029177514 -0.092044823
-0.097490117 0.016472846 0.042712085
0.038838353 -0.0060142181 0.08622767
-0.10422193 0.0093738344 0.10398237
0.13660765 -0.014918512 -0.024839437
0.0099999988 0.0049445578 0.032140151
-0.1219775 -0.019108752 -0.014311121
-0.06432952 -0.01770756 0.091970563
0.10591836 0.018160494 0.071915992
-0.096768156 0.017743684 0.057517685
0.14686483 0.0068448302 -0.020010702
0.12299234 -0.018964075 0.011354784
-0.017774271 4.841523e-05 0.090356022
0.056642249 0.0048031895 -0.13788746
0.1202352 0.01025697 -0.08267194
-0.0021766396 0.0049999985 0.037674624
-0.084826447 0.018964335 0.08983323
0.082126997 -0.0091371797 -0.12193765
0.086269751 0.017486898 -0.099695742
0.079117686 -0.017839661 -0.08085832
0.11525003 0.018411867 0.052531604
0.080580533 0.011145343 0.056236371
-0.082002148 0.017175265 0.072107106
-0.078982092 -0.012694504 -0.11825232
-0.11166278 -0.018966142 -0.05270908
-0.022999901 -0.013803467 0.099705622
-0.021258365 -0.0090045091 0.09337569
0.14055486 0.013540105 -0.01018833
0.00011921275 -0.018625932 -0.12564771
-0.097392634 -0.015306399 0.098458074
0.09763363 0.016112143 0.09647844
-0.054220099 0.017020285 -0.094034933
0.041829966 0.013584735 -0.13454714
0.039883051 0.013432393 0.13545215
0.13514951 0.013390934 -0.040970251
0.076937422 0.013575661 -0.066864133
0.0034944671 0.0049999971 0.065046906
-0.079058737 -0.017580587 -0.10509526
0.14453086 0.011251149 -0.0026302419
-0.00021020137 -0.0049999962 -0.096194491
-0.08901871 -0.0020479695 -0.026773088
-0.12915599 -0.016414519 -0.04435356
-0.080621228 0.013758309 0.063083909
-0.077844635 0.017245917 -0.07745456
-0.080651283 0.018981624 -0.088114679
-0.092277221 -0.018780086 0.074173875
-0.089922413 0.0090376353 0.032951854
0.018518699 0.0098172138 0.094429858
0.095631383 0.0045230407 0.11416873
-0.011900028 -0.012296326 -0.14233395
-0.14784808 -0.0028791805 0.023332234
-0.12117363 -0.017875399 0.04633465
0.08591298 -0.016109383 -0.061813593
-0.12235729 0.019045038 -0.01403355
0.067712188 0.0099807568 0.12975392
-0.086679012 -0.0039828685 0.036055796
-0.1150443 0.0060427948 0.093695864
0.080805838 0.0048400131 -0.12492166
0.004332412 -0.004999999 -0.024751272
0.085452519 0.010096823 -0.11866957
-0.078951642 -0.016255919 0.070735507
-0.013018194 -0.0034022634 -0.14881365
-0.0099999988 0.0037826644 0.066599019
0.11114174 -0.01872994 0.039685491
-0.016503081 -0.0089271478 0.14633408
-0.11290497 -0.01779924 -0.06513086
0.13847032 -0.014848755 0.011630991
0.090419941 -0.013565684 0.047075324
0.11989342 -0.0084966701 -0.085655093
0.076168589 -0.005464247 -0.12771496
0.085075416 0.015728137 -0.1084089
-0.050898183 0.0021706296 -0.14096764
-0.087145992 -0.0049999999 -0.0038512871
-0.072354324 0.019284587 0.097349294
-0.11166262 -0.018471323 0.059045006
-0.094889238 -0.0070279376 -0.0036558327
-0.12898818 -0.016838392 0.041583024
0.0099510364 -0.004999999 -0.018642869
0.14429656 0.0018239723 0.041530102
-0.092113718 0.0049999999 0.0044688229
0.091371767 -0.016746722 0.05543191
0.11771385 0.018059149 -0.052051626
-0.13460083 0.012604301 -0.046300013
0.070064828 -0.012073016 -0.12505394
0.04070659 -0.013999647 0.13426363
-0.13064757 -0.0076879496 -0.068800673
-0.066031612 0.0049999999 -0.0027926234
-0.086956084 -0.013317646 0.11162443
-0.07757403 0.0049999999 -0.0039610574
-0.083507389 -0.01054155 0.11915766
-0.10068676 -0.0085050967 -0.10758188
0.095244281 0.019142019 -0.077130333
0.0071574193 -0.0056494977 -0.14828214
0.0040648067 0.0012786649 0.15026578
0.057908274 0.0094348304 0.13522716
-0.12541819 0.017465843 0.041045845
-0.059695747 0.0049999999 -0.0080737229
0.10813314 -0.017443791 0.023892399
0.01523288 0.0057829586 0.14769848
-0.0061879242 -0.0049999999 -0.0018084743
-0.13897577 -0.014509434 0.011791501
-0.0843383 0.017425759 -0.071594574
-0.099092379 0.0016565119 0.11268368
0.11068208 0.01791469 0.024747077
-0.048991743 -0.0049999999 -0.0041693375
-0.041397393 0.014880471 -0.095444381
0.0018220595 0.0050000022 -0.049306978
-0.0097999051 0.011947374 -0.099031575
-0.047977086 0.01743521 -0.099733509
-0.1043194 0.016752239 0.022991734
0.13976268 -0.0022889853 0.054298222
0.0020148442 -0.0050000013 0.034989763
0.089786544 0.017956253 0.093076274
0.079515293 -0.017809624 0.10318843
-0.099008076 -0.017824378 -0.084155291
-0.043433927 0.019132426 -0.11227631
0.14852524 -0.003102514 -0.019281801
0.0014023159 0.0032599275 0.1
0.087521389 0.0095190443 0.11814644
-0.14987023 -0.00066093513 0.01393942
0.11895818 0.014704707 -0.072435446
-0.040997095 -0.017477475 -0.12536512
0.019603416 0.014590919 0.1015995
-0.10913543 0.017851004 0.030111384
-0.079512283 -0.017658575 -0.079097226
-0.05250068 0.0050000004 -0.0038465853
-0.11497699 -0.011367774 -0.08750762
0.0039037229 0.0049999999 -0.0014394671
0.13415639 0.017070742 -0.0049581658
0.012874248 -0.011498267 -0.14348364
0.0060215131 0.01429538 -0.13967946
0.051894017 0.01763723 0.12045559
-0.13521299 -0.016256738 0.021442577
-0.024737181 -0.017370548 -0.10754228
-0.0038628343 -0.0049999962 -0.088199757
0.080444291 -0.0017714888 0.12666374
0.096742138 -0.013260551 0.10315751
0.090435728 -0.0067537576 0.028550899
-0.0017245058 0.017022777 0.10845193
-0.030646175 -0.018303361 0.12360962
0.13823333 0.015300348 0.0047694012
-0.089034721 0.012739571 -0.11096817
-0.13686898 0.0013777293 -0.061985537
-0.023138214 -0.0032284465 -0.090607338
-0.1216279 -0.015413059 -0.065553479
-0.12942421 -0.012592766 0.059419699
0.062303752 0.0044202092 -0.0099999961
0.097260028 0.017654346 0.087608859
0.14165691 -0.012237802 0.020304972
0.068481304 -0.015797565 0.080003455
0.11315587 0.0081127929 -0.094572738
-0.12672204 0.017297089 -0.040177774
0.13658966 0.014337086 -0.029451985
-0.1228938 0.013488725 -0.069588378
0.078068241 -0.013668494 -0.065788336
0.0048131892 -0.0049999971 -0.066343233
0.14173517 0.010957783 0.029867334
0.10382677 -0.018412115 -0.072481446
-0.044659957 0.0049999999 0.0049417745
0.051338308 0.01302621 0.13221446
-0.095216013 0.00097322487 -0.11645272
-0.0031714996 -0.0049999971 -0.073960178
0.010664077 0.016760556 0.10637785
-0.079764754 -0.017643562 0.10419467
0.074610375 0.017523069 -0.082426481
0.043109786 0.01763696 0.10340774
0.0035515795 -0.018223807 0.11514799
0.045264956 -0.016143829 -0.1292804
0.097530335 -0.018420622 0.080719456
0.046422377 0.0049999999 -0.0029498143
0.03713046 -0.018189501 -0.1224196
-0.10651811 -0.013622 -0.092078283
-0.019478045 -0.0097987819 -0.094210528
0.14834666 -0.0050036646 -0.010187734
0.12833147 -0.0042713438 0.076118864
0.0025294884 -0.0049999971 -0.058700062
0.040381603 -0.004137828 0.0099999961
-0.022245504 0.018266866 -0.12549132
0.13449153 -0.014209781 -0.039043218
-0.12491999 -0.012987044 0.067200668
-0.073182173 -0.017104551 -0.112264
-0.026817903 -0.014340793 -0.099766448
-0.0735671 0.016951518 0.079036489
0.0026385332 0.0049999999 0.0073275054
-0.014031023 -0.018822223 -0.12362191
0.045418859 -0.00081986893 0.080627777
0.12576495 0.010168814 -0.074636795
0.098026887 -0.017388374 0.089018889
0.071958907 -0.0018524831 -0.05872393
0.086105049 0.018138152 0.075698577
0.024163621 0.015906835 0.13521302
-0.11366562 0.018175121 -0.017307321
-0.096814319 -0.019093372 -0.075757831
0.029542891 -0.0049999999 0.00014454592
-0.089482076 0.017034873 0.061197225
0.036873732 -0.011492033 0.091788068
0.14331305 0.0097172698 -0.031583138
-0.072580971 0.01412048 0.11992711
-0.14574435 -0.009555527 -0.019994358
0.020058196 0.019179435 -0.11891716
0.072880037 -0.014805723 -0.074144155
-0.12459449 0.018723028 0.0077814409
0.14698124 -0.0046927761 0.023910563
-0.022396885 -0.017263507 0.13125443
-0.061514594 -0.016743906 -0.087288305
0.11631887 -0.018467393 0.0067783501
0.10188209 0.018721413 -0.072239302
-0.12130226 0.018543854 0.034179218
0.045534644 -0.014495051 -0.092752077
0.025411554 0.015200349 -0.101387
-0.13071752 -0.013977773 0.051256366
0.0016644339 -0.0050000027 0.073948853
-0.020739567 -0.0049999999 -0.004381543
-0.009990775 0.004999999 0.023003893
0.018689848 0.016420472 -0.13550715
0.030353405 -0.017561909 -0.12794882
-0.099682905 0.002727319 -0.0099999961
0.0099999988 0.0034558433 0.097683378
0.090454891 0.0024747201 0.022333801
-0.040567406 0.017589558 -0.10402256
-0.079085775 0.0046151187 -0.12618098
-0.064621486 -0.0041135098 0.13432889
-0.066573478 -0.01899153 -0.10382812
-0.1013224 -0.016001018 0.030071348
-0.096225306 -0.018345518 0.082852595
-0.07521604 -0.016604561 0.11363316
0.10960998 -0.018931773 -0.057311863
-0.086106449 0.0049999999 -0.0014263815
-0.14767104 -0.007498363 0.0049871197
-0.029202767 -1.4877463e-05 0.14786775
0.13088171 -0.017469645 0.01828712
0.024491103 -0.013019498 0.13961488
0.11328971 -0.018850844 -0.03548786
-0.0028480759 0.016195351 -0.13699833
0.11629899 -0.014948204 0.075750232
-0.036316928 0.0050000004 -0.0096445428
0.11202436 0.016417751 0.078134045
0.12205427 -0.018930059 -0.020273894
0.093786329 0.0073870146 0.015823018
-0.0010112713 -0.017974745 -0.11390112
-0.098542236 0.017792301 -0.084962055
-0.071396276 -0.0028866471 -0.13154411
-0.030792002 -0.016330192 0.13323961
0.049414583 0.015849493 -0.093130194
0.04829473 -0.017695241 0.10121875
-0.067150436 0.014548097 -0.078648917
0.036024719 -0.018177137 0.10907847
-0.10463823 -0.015916774 -0.014638838
-0.0012523188 0.015498365 0.13816275
-0.038949452 -0.012034554 0.091836721
0.056035101 0.018716484 0.10384986
0.12504652 0.018169712 -0.027301701
-0.13888098 0.011521143 0.038804129
-0.092764489 0.017430525 -0.060317561
0.13003305 0.014632416 0.050182402
0.072978854 0.018666854 0.092472389
-0.13804197 0.013301694 0.030203722
-0.087502904 -0.011153548 -0.044715147
0.059214767 -0.018206406 0.11325162
0.088671535 0.015655408 0.056445211
-0.13849613 0.015232204 -0.0023407743
0.095301062 -0.014062931 -0.10280192
-0.00093202852 0.0049999966 0.082386792
-0.0088408114 0.0040366799 -0.14882897
0.095370091 -0.016311729 -0.046458371
-0.064470582 -0.0099072391 -0.13147686
