# .PCD v0.7 - Point Cloud Data file format
VERSION 0.7
FIELDS x y z
SIZE 4 4 4
TYPE F F F
COUNT 1 1 1
WIDTH 126
HEIGHT 1
VIEWPOINT 0 0 0 1 0 0 0
POINTS 126
DATA ascii
-0.016342819 -0.020398445 -0.090202928
-0.015319492 -0.016579166 -0.090289734
-0.015104122 -0.0037800372 -0.090356611
-0.014825076 0.0036602616 -0.090337567
-0.015233397 0.018291883 -0.090359285
-0.016263299 0.021542255 -0.090324908
-0.013237175 -0.021258626 -0.084348314
-0.0093143582 -0.020020068 -0.08748278
-0.013244173 -0.015082251 -0.084620118
-0.00967893 -0.017662555 -0.087477386
-0.013240998 -0.0053149951 -0.084923737
-0.0078757023 -0.0041784444 -0.083860308
-0.013279964 0.0053105066 -0.084933795
-0.007894896 0.0040155486 -0.083920762
-0.013275925 0.015086739 -0.084566876
-0.009869799 0.015161023 -0.087264985
-0.013238216 0.021818973 -0.084385641
-0.0097097252 0.022210317 -0.083402045
-0.013325965 -0.021244638 -0.075049505
-0.0099657178 -0.021272182 -0.076507345
-0.013343888 -0.01513959 -0.075029828
-0.013522181 -0.0055864207 -0.075115733
-0.0078496067 -0.0044269762 -0.074985974
-0.013597988 0.0055379365 -0.075025551
-0.0078621376 0.0041515343 -0.075037763
-0.013373869 0.01504258 -0.075009361
-0.013265018 0.021842398 -0.075091012
-0.0097691864 0.021826357 -0.073604971
-0.01336358 -0.021237148 -0.065089338
-0.013353921 -0.015148873 -0.065050676
-0.013507662 -0.0055344212 -0.064948946
-0.0078970902 -0.004287106 -0.065047957
-0.013575172 0.0055005224 -0.064938284
-0.007910924 0.0041232272 -0.064954609
-0.013412043 0.01508341 -0.065072037
-0.01335614 0.021863999 -0.065051988
-0.0097247437 0.021730304 -0.065948889
-0.013381855 -0.021255406 -0.054948121
-0.013384996 -0.015137064 -0.055015769
-0.013509384 -0.0056753815 -0.05492419
-0.0079326853 -0.0042628339 -0.055028923
-0.013622818 0.0055182176 -0.054892059
-0.0079624327 0.0041638124 -0.055040609
-0.013446462 0.015102295 -0.055051509
-0.013300989 0.021895699 -0.055063739
-0.0096108913 0.021510324 -0.054570764
-0.013411533 -0.0212513 -0.045121972
-0.013445819 -0.015133018 -0.045028426
-0.01351349 -0.0054765851 -0.044676863
-0.0079930201 -0.0042782272 -0.044745658
-0.013582116 0.0054546371 -0.044733152
-0.0079723829 0.0042607244 -0.044635575
-0.013490801 0.015041825 -0.045108069
-0.013391887 0.021617591 -0.04522153
-0.0097468896 0.021842828 -0.042670816
-0.012945989 -0.021173839 -0.0392115
-0.013290398 -0.015206341 -0.039333098
-0.012220678 -0.0050548576 -0.038889758
-0.0056826365 -0.0044179233 -0.034739457
0.00027674538 -0.0045851283 -0.030970141
-0.012161945 0.0049339263 -0.038959041
-0.0055858931 0.0042024497 -0.034908656
0.00057760999 0.0043185526 -0.030887524
-0.013231243 0.015144476 -0.039388254
-0.013411079 0.021811593 -0.039297547
-0.0017542988 -0.010358691 -0.024715781
0.0024169907 -0.010177314 -0.023381084
-0.0022414261 -0.0048831883 -0.026531734
0.0021468683 -0.0048087556 -0.023384888
-0.0022075698 0.003792865 -0.026600981
0.0020889451 0.003798574 -0.023802996
0.0055562314 -0.010285269 -0.015680023
-0.00062117324 -0.004895607 -0.019180544
0.0054781768 -0.0051479796 -0.015104492
0.010722732 -0.005159195 -0.01192239
-0.0005710703 0.0035219805 -0.019267503
0.0054617776 0.0034609274 -0.015386007
0.010177378 0.0034655167 -0.013491397
0.0087617086 -0.010356761 -0.0068044863
0.012565931 -0.010600243 -0.0033339111
0.0082221767 -0.0054074442 -0.0074456036
0.012452504 -0.0053066141 -0.0043998198
0.0083870739 0.0032140806 -0.0075211143
0.012394828 0.0030349768 -0.004804567
0.013065818 -0.010607718 0.0049427808
0.0098874867 -0.0091493633 0.004134099
0.013049806 -0.0052446839 0.0050223512
0.0097315041 0.0037833189 0.0058449018
0.013052438 0.0029322382 0.004866058
0.013132934 -0.010618512 0.0150678
0.013012173 -0.0052430225 0.01502851
0.0096579744 0.0038349584 0.015470289
0.01297317 0.0029144997 0.014727124
0.012919279 -0.010570523 0.024930542
0.0098777413 -0.0093659759 0.020482242
0.013014586 -0.0052557806 0.025047768
0.0096588386 0.0039128317 0.02542988
0.01297323 0.0029926396 0.024772448
0.012863295 -0.010605616 0.035076413
0.0098747462 -0.0095260292 0.037785456
0.012967002 -0.0052707577 0.035021957
0.0097424658 0.0037014089 0.034459129
0.012958684 0.0029519263 0.034875102
0.01289565 -0.010569253 0.045095813
0.0129467 -0.0051699597 0.045074705
0.009688965 0.0038976967 0.044921532
0.012953335 0.0029575741 0.044987939
0.012890745 -0.010611924 0.05511225
0.0099951625 -0.0094168484 0.050933063
0.012912953 -0.0052352957 0.055060934
0.0097130807 0.0037760038 0.055535328
0.01291026 0.0028894478 0.054861348
0.012769078 -0.010569505 0.064931452
0.0097364187 -0.0094461739 0.068863213
0.012909956 -0.0052307583 0.064969197
0.0096436413 0.0038734309 0.064943023
0.012872844 0.0029664848 0.064866632
0.012846069 -0.010526478 0.074541405
0.012958871 -0.0052018669 0.074329555
0.0096509457 0.0039894185 0.07331565
0.012962702 0.0030307465 0.074325114
0.012567025 -0.010602063 0.084210351
0.01295989 -0.0051911059 0.084123403
0.012889467 0.0029063197 0.083278663
0.014801927 -0.0066261324 0.090341255
0.015369296 0.0029344 0.090223789
