# .PCD v0.7 - Point Cloud Data file format
VERSION 0.7
FIELDS x y z
SIZE 4 4 4
TYPE F F F
COUNT 1 1 1
WIDTH 1290
HEIGHT 1
VIEWPOINT 0 0 0 1 0 0 0
POINTS 1290
DATA ascii
-0.041140951 0.38262266 0.054850668
-0.067605667 0.36174133 -0.012442354
-0.037336525 0.021857999 0.08920078
-0.00086578843 0.2135907 0.068745859
0.039423805 0.054557659 0.039241131
0.034461729 0.34807795 0.059250783
-0.02679953 0.024751924 0.092470594
0.0018637278 0.00053354411 -0.061346397
-0.060733657 0.2062453 0.031687491
-0.058025148 0.0028556073 -0.076916799
0.032533303 0.20823163 -0.060281452
0.026132714 0.011762946 -0.048814364
-0.0078636445 0.025246002 0.095959634
0.079538003 0.047903158 -0.054831196
-0.047859583 0.062084865 -0.027919022
0.058647875 -0.00047413984 0.067303412
0.02673257 0.35968864 -0.06338203
-0.012767876 0.38807696 0.054905418
0.063847475 0.35064012 -0.025497157
0.054320585 0.044639878 -0.011670407
-0.012271158 0.068070278 0.095525518
0.046953205 0.084045976 0.084060505
-0.031786807 0.078767575 -0.045541395
0.031156583 0.38807693 0.045385662
0.068586752 0.18627641 0.0024807281
-0.047003176 0.11768726 -0.050039582
-0.0013902241 0.12159428 -0.068694159
0.054818191 0.018505188 -0.0083157532
-0.063746579 0.35451016 0.025829908
0.062776126 0.36756012 0.027866242
0.033231545 0.055909965 -0.090519369
0.079832256 -0.0004848617 -0.040568795
0.070070893 0.049962085 -0.066366896
-0.00017273525 0.055506732 -0.096717022
0.02386352 0.16924611 -0.064342983
0.090803623 0.017001461 0.032294698
-0.096480466 0.023384787 0.0025751707
0.044439968 0.32620052 -0.052143138
0.015109291 0.016539752 0.053277504
-0.062856562 0.26148376 -0.027715787
0.012573118 0.25076795 0.067592792
0.048210271 0.31374443 -0.049048953
-0.068747193 0.36522168 0.00085168815
-0.0051756413 0.061827403 -0.055127475
-0.093905933 0.044504188 0.022067657
0.063945971 0.13294782 0.025172466
0.036878563 0.12724292 -0.057958845
-0.057034135 0.159255 0.03848036
-0.047966499 0.066463761 0.0835189
0.010382538 8.1384562e-05 0.073131502
-0.038328197 0.028114719 -0.040173039
-0.064976148 0.10547318 -0.021776484
-0.0022509871 0.21364534 -0.068609387
0.017649168 0.26255006 -0.066228114
-0.040213499 0.27282235 0.055611815
-0.027869584 0.095650546 -0.047885995
0.049691573 0.2354688 -0.047427237
0.0087867165 0.27949649 -0.067965679
0.068711169 0.28747162 0.0012174996
-0.051286198 0.08433307 0.08174447
-0.09553396 0.065106586 -0.012185254
-0.033707168 0.22189146 -0.059654038
0.06120174 0.053315349 -0.074309818
-0.067680687 0.36003983 0.011680545
-0.06259311 0.11611755 0.028208699
0.068407953 0.027294371 -0.068393193
0.0076652202 0.072422758 0.095979199
0.00049204484 0.22577816 0.068782665
0.010081465 0.097860001 0.0066211824
-0.090478905 0.011313737 -0.033364963
-0.038618986 0.38807693 -0.055564266
0.0011683728 0.33144119 0.068716049
-0.064966835 0.32337904 -0.02180719
-0.07075309 0.099998862 -0.0078031723
-0.058979727 0.10085115 -0.034968808
0.020803029 0.047495 -0.094289511
-0.0046437625 0.085237063 -0.05517986
0.00024468315 0.25692818 -0.068806998
0.095460303 0.038543124 -0.012932617
-0.0096639814 0.055477481 0.09578231
0.059873175 -0.0003669482 -0.062444679
0.090126619 -0.00070500065 -0.032383628
-0.012965675 0.1066113 -0.067554072
-0.049364414 0.07294248 0.025103774
-0.0040088403 0.097860001 0.022215459
-0.0017203633 0.3328675 -0.068661645
0.016750006 -0.00043247931 -0.086850688
0.031074418 0.28313848 0.061061349
-0.00047020032 0.35515752 -0.068784781
-0.044151425 -0.00071347045 0.085119843
0.025853848 0.070941783 0.092757478
0.068042077 0.34542221 0.0080111362
-0.066082023 0.24498215 -0.018130932
-0.063434601 0.12396082 -0.02663435
0.02644285 0.37317282 0.063536979
0.0016510227 0.13598274 0.068668522
0.0069528022 0.099998847 -0.092724316
-0.09019421 0.065335542 0.034303576
-0.095999502 0.030993907 -0.0074584847
-0.052864578 0.24455413 -0.043560944
0.06847357 0.13309918 -0.0036298844
-0.0034608336 0.083035402 0.096393287
0.034179632 -0.00039943276 -0.080555864
-0.053676795 0.00051447627 0.030600393
-0.012920673 0.049590312 0.053941403
-0.056907952 0.36552256 0.038634107
-0.011286816 0.33946741 -0.06771943
-0.06794282 0.14497426 0.0090189828
0.070695721 -0.00017232914 0.039241314
0.035095476 0.1636477 0.058912039
0.0030466202 0.076729231 -0.055337172
-0.066395722 0.26358145 -0.017096791
0.0076643382 0.23140299 -0.068076216
-0.076663263 0.049771767 -0.058334105
0.052720375 0.076658323 -0.080977783
-0.031886317 0.35303488 -0.060627304
0.055497322 0.095944591 -0.0014205695
-0.010186444 0.34264675 0.067827843
-0.048828322 0.38807693 -0.028220881
-0.056497917 -0.00010225723 0.055526953
-0.030704269 0.019593012 0.046370909
5.3109194e-05 0.20223296 0.068825901
-0.076735854 -1.7678196e-05 0.001866783
0.0685637 0.19993901 -0.0027147862
-0.050236676 0.15237027 0.046763077
-0.033483345 0.33717731 0.059773743
0.025627069 0.2973817 0.063808106
0.080637418 0.08178246 -0.053357188
0.0096302154 0.32084721 -0.067882597
-0.044052597 0.22592378 -0.052461054
0.0078977449 0.16996637 0.068053268
0.0019579181 0.18285885 0.068638295
0.051133197 0.29719505 0.045670692
-0.070771746 -6.5337452e-05 0.032792851
-0.069957234 0.099998854 0.038226411
-0.0024619114 0.29219449 -0.068588614
0.010189842 0.21368481 -0.067827478
-0.063119911 0.078336991 0.072735727
-0.096361227 0.092684992 -0.00378581
-0.065352619 0.38346833 0.020535482
0.010103256 0.38807693 0.013676761
0.096092574 0.06372866 0.0065134484
0.0096305441 0.040049929 0.054688755
-0.087772287 0.052256469 0.040008835
-0.0081447577 0.31233639 -0.068028904
-0.016600261 0.19331715 -0.066546276
0.035977822 0.097859994 0.014376924
0.016958928 0.097860001 -0.033296887
0.017908443 0.033881463 -0.052428305
0.068695292 0.23856843 -0.0013786954
0.068815738 0.15210298 0.00015565817
-0.0026727838 0.38807693 -0.026114717
0.041088652 0.25189316 -0.054893475
0.063698381 0.27216178 0.025988668
-0.017992197 0.099998862 0.077949062
-0.025140604 -0.00033570576 0.081601553
0.054573152 0.19626389 0.04147907
0.027757505 0.18558756 -0.062834181
-0.019198203 0.2235769 -0.065758206
-0.011859852 0.38807693 -0.04950067
0.086168699 -0.00060693698 0.03590975
-0.068687342 0.17730272 0.0014594031
-0.062428173 0.14959377 -0.028517246
-0.055295825 0.090841547 0.0034669638
-0.060564134 0.24566168 -0.032004613
-0.031483032 0.38807693 0.058974341
-0.0062503512 0.36914447 -0.068215474
0.096149206 0.099998854 0.0049398276
-0.00095731777 0.19530183 -0.068736799
-0.015539465 0.32100531 -0.066868067
-0.008069885 0.086314708 -0.095939234
0.091351777 0.099998854 -0.0076154354
-0.068019606 0.18345203 -0.0082393344
-0.050636057 0.00028187796 0.045845568
-0.046110846 0.093290791 -0.031092964
-0.0053707613 0.16058221 0.068302162
0.029523278 0.28450406 -0.061890356
0.010547896 0.086332224 0.054598399
-0.05187482 -5.8654372e-05 -0.057927635
-0.06755615 0.1937827 -0.012945115
-0.021827472 0.3880769 0.016949816
0.068685926 0.3794218 -0.001473833
-0.096682996 0.060186423 -0.00051878474
-0.043864798 0.095720403 -0.085711218
0.066318542 0.19570956 0.017351246
0.0025800739 0.34405452 -0.068576977
-0.060786571 0.0005432585 -0.0047952533
-0.047664259 0.18158656 -0.049497057
-0.046560012 0.099998854 -0.073364481
-0.064343721 -0.00049821119 -0.06330815
0.038850736 0.15203062 -0.056730069
0.016757334 1.6968523e-05 -0.073904425
0.058075789 0.099998854 -0.059451401
-0.0055053881 0.38807696 0.019084508
-0.0068277423 -0.00050867011 0.096061669
-0.0688297 0.21902385 -1.3934712e-05
0.062093053 0.14223944 -0.029144136
0.094182149 0.030437946 0.02115717
0.045739915 -0.0007088916 0.084126502
0.06687431 0.15105689 0.015519161
-0.055543203 0.060062081 -0.00095534342
-0.016286144 0.26347983 0.066641629
-0.0059564263 0.02220225 -0.096147381
-0.0082146628 0.044140931 0.095925063
-0.00078710879 0.29971224 0.0687536
0.051714506 0.21691321 0.044962365
0.0018612893 0.16886301 -0.068647765
-0.095022 0.005559261 -0.017383212
0.034341022 0.097860001 0.039917983
-0.013164741 0.097859994 0.0069481819
-0.067611098 0.15945396 0.012387169
-0.082454354 -0.00034222024 -0.022952167
-0.044497766 0.1346118 -0.052095708
-0.068727501 0.16292229 -0.0010516432
0.022071289 0.051934335 -0.050985251
0.071188964 -0.00040102121 0.050710872
0.043610223 -0.00010778512 0.066327125
-0.059706975 0.2194168 0.033608261
0.010144174 0.086645938 -0.095734939
0.017851276 0.029430088 -0.094975844
-0.03798734 0.053921897 0.040452823
0.067825705 0.32260963 -0.010208132
0.019382253 0.099998854 0.068806998
-0.062059324 0.3772988 -0.029207326
0.060849514 0.283979 0.031470682
0.015659872 0.38807693 0.05658241
0.095713183 0.041253943 0.010365558
-0.066003241 0.2757296 -0.018390631
-0.013646851 0.3880769 -0.034689326
0.068770193 0.10101826 -0.00061812956
-0.014290306 0.13952893 -0.067246988
-0.023133541 0.2172824 0.064564481
-0.05207425 0.094902031 -0.019075647
0.090726152 0.014292304 -0.032549925
-0.076146707 0.099998854 -0.054867864
0.028012345 0.38807693 -0.024353104
-0.027802629 0.097860001 0.047198169
0.046103776 0.12766148 -0.050777681
-0.020326892 0.00036685099 -0.062662818
-0.058839072 0.35857424 -0.035231963
0.029647352 0.044619948 0.046935812
0.055348583 0.34740943 0.040534198
0.068770424 0.2223932 0.0006157718
-0.065346688 0.33535793 -0.020554986
0.081962258 0.054387756 0.050878707
0.039056446 0.29862985 0.056561351
-0.068673633 0.3286621 0.0015985351
0.047992039 0.27089709 0.049228143
-0.096414268 0.0098980358 -0.0032471805
0.035801679 0.23987041 0.058534563
-0.053469282 0.014668957 0.080577567
-0.068229243 0.11494759 0.0061108163
-0.011458131 0.14734645 0.067702606
0.025476305 0.0017271058 0.04916532
0.050308425 0.20669223 -0.046675596
0.06855084 0.25955221 0.0028453732
-0.00079984701 0.1511178 -0.068752311
0.030341549 0.38807693 0.0046717334
-0.048514221 0.017821966 -0.026694272
-0.011161579 0.099998862 0.092461765
0.030788826 0.15224448 0.061214004
0.043450143 0.23190561 0.05295556
0.05523036 0.079466999 -0.0041309735
0.0041457391 -0.00068432098 -0.095123291
0.031248381 0.2956357 -0.060968261
0.036267299 0.099998854 0.069948055
0.055694696 0.095958203 0.078829445
0.078634322 0.042780716 0.055932444
-0.016330307 0.27841434 0.066628225
-0.055065636 0.070851587 -0.0058040814
0.067769639 0.28339607 -0.010777319
-0.090319201 0.094570309 0.033891536
0.056767438 4.3268043e-05 -0.048824612
0.025606474 0.087737121 -0.092832409
-0.024466345 0.23359272 0.064160176
-0.062090158 0.1398803 0.029149672
-0.033105381 -9.6510033e-05 -0.071586572
0.095458664 0.060430396 -0.012949208
-0.068548992 0.075850904 -0.068221323
-0.0010465254 0.061594713 0.055534221
-0.038526475 0.041385133 0.040010367
0.0020268189 0.15194187 0.068631507
0.068639904 0.11762158 0.0019410324
0.042575877 0.00057089445 -0.042930909
0.056419186 0.27044365 0.039229665
0.0063871029 0.38807693 0.041089796
-0.030195909 0.00045509508 0.055763841
0.057674121 3.3351836e-05 0.048154388
-0.080318488 0.079498373 -0.053880222
-0.02706218 0.099998862 0.090122774
0.068695299 0.27288088 0.0013785862
-0.024239408 0.18521041 0.064229019
0.02353755 0.2071915 0.064441957
0.086848006 0.099998854 0.026004503
-0.068282001 0.25482091 -0.0055749943
0.0497167 -0.00066133839 -0.082583278
0.020485586 0.22198451 -0.065367676
0.053659558 0.068653621 0.080475897
0.052730136 0.033807751 -0.016913395
0.043103475 0.097860001 -0.030905353
0.047233012 0.056389734 0.029091263
-0.083098814 0.046137955 0.048752356
-0.043558683 0.38807696 0.024468787
0.018846644 0.34436822 0.065864921
0.016456271 0.3135379 0.066590026
-0.033712752 0.23708779 -0.059651051
-0.026382215 0.11195076 -0.063569315
-0.064959086 0.29670432 0.021832781
-0.013774662 0.00022673956 0.068718791
-0.0013836917 0.38495782 0.068694845
0.068261921 0.083131202 0.068515792
-0.02451925 0.044916689 0.049676869
-0.010547007 0.17116541 -0.067792289
-0.060119789 0.051825374 0.075197868
-0.069244906 0.00017461425 -0.017028995
0.066957399 0.29838774 0.015245234
-0.096044093 0.076539099 -0.0070056864
-0.028820807 0.079369053 0.047377639
0.053202819 0.043484759 -0.080719903
-0.0039442182 0.26370081 0.06844265
-0.066729113 0.342641 0.015997773
0.025330598 0.11251137 -0.063897945
-0.035858903 0.097859994 -0.020694066
-0.033578403 0.17509121 -0.059722859
-0.044461805 0.017012147 -0.085392103
0.026221585 0.17379859 0.063627772
0.012123478 0.21060467 0.067637071
0.051149197 0.28151304 -0.045651104
-0.082011089 0.091286771 0.050787374
-0.033090148 0.16067849 0.059983924
-0.046323206 0.3135781 -0.050597623
-0.068283655 0.38245696 0.0055582975
-0.039678149 0.1939742 0.056051172
-0.022669004 0.14448918 0.064705402
0.054319479 0.085616283 0.011674119
-0.09604679 0.046696767 -0.0069783647
-0.052677736 0.16487733 -0.043788612
-0.054343585 0.073459469 0.011594787
0.068066962 0.31139818 0.0077585005
-0.065119803 0.30842295 -0.021302922
0.029109176 0.31701174 -0.062111702
0.034079969 0.38807693 -0.048752133
-0.056843922 0.38807693 -0.036650151
0.065610014 0.00024235935 0.022527531
-0.00052953965 -9.2399787e-05 -0.078953572
0.054346681 0.069806859 -0.011584385
0.065979101 0.36180961 -0.018470153
-0.056214299 0.3099103 -0.039479326
-0.081590906 0.06654112 0.051573481
-0.041808609 0.28871825 0.054302737
0.088584878 0.034210246 -0.038488548
-0.0878857 0.027692458 -0.039796587
0.040229369 0.011120106 -0.038259488
0.01274931 0.00046930774 0.06198686
0.046136659 0.38807693 -0.04810949
0.039993428 0.08530134 -0.038546987
-0.012544108 0.030317286 -0.054055534
-0.050341204 0.04334224 0.082249582
0.0074625988 0.099998862 0.079510473
0.05743691 0.00037749423 0.031639524
-0.047206126 0.10222666 0.049873088
-0.064837746 0.099998854 0.053522859
0.0096926885 0.11393689 -0.067876436
-0.095324971 0.063400015 0.014306974
-0.034968644 0.059677582 -0.089992441
-0.019746283 0.097860001 -0.0097357789
0.011992531 0.3880769 -0.015592046
-0.057680942 0.063531198 -0.077199288
0.0082639409 0.097860001 0.021439627
0.048593171 0.053767622 -0.026546506
0.049878351 0.0061718863 0.024142189
0.021291545 0.094146088 -0.051402029
0.067576773 0.18530679 -0.012735675
-0.054386053 -0.00038151952 0.067471907
-0.049630806 0.38807693 0.035277203
0.095333211 0.087291099 0.014223387
-0.01893571 0.046959516 -0.05211667
0.064969681 0.31072313 0.021797808
-0.037495539 0.0063923788 -0.089115627
-0.066296875 0.13960038 -0.017422637
0.065142259 0.328816 -0.021228833
-0.0578609 0.095330805 -0.077051602
0.068233021 0.049313482 0.068539508
-0.0091414144 0.24359313 -0.067930728
0.05749115 0.11936423 -0.037753608
0.055238385 0.036100123 -0.0040495279
-0.057318039 0.33386713 -0.038077597
-0.020029932 0.016357124 -0.051784739
-0.032133479 0.17408308 0.060495272
-0.0069223307 0.26645774 -0.068149298
0.023630753 0.012226704 0.093431845
-0.0080457786 0.049150724 -0.054844785
-0.016645378 0.099998862 -0.085199587
-0.031174257 0.027515948 -0.091143444
-0.06866733 0.24409875 -0.001662524
0.011415902 0.12735838 0.067706764
0.052630968 0.061861865 0.017240399
0.016897453 0.11607049 0.066456199
-0.041099194 0.06415315 -0.037199672
0.061157688 0.38807693 -0.0017334304
0.031080971 0.067245997 -0.046120647
0.01312094 0.065368585 0.053880643
0.067608677 0.099998854 0.012698936
-0.018719355 0.20420051 0.065903522
-0.0076218895 0.22432479 -0.068080388
0.011718195 0.35384846 -0.067676954
0.089519508 0.068929709 -0.036527757
0.062193736 0.25858223 -0.028955774
0.032968942 0.029260116 -0.044571221
-0.079270653 0.014528706 -0.05515701
0.018036652 0.1543718 0.066110633
0.063228466 0.3291671 0.027019983
-0.052126981 0.30074158 0.04445973
-0.088071905 0.018925052 0.039448269
-0.029121457 0.3072519 -0.062105164
0.032344371 0.033385515 0.045083854
-0.016153803 0.32112747 0.066681772
-0.066755436 0.23156427 -0.015910996
-0.0039736335 0.01113527 0.09634278
0.00076616567 0.022451829 -0.055561777
-0.047313981 0.039597631 0.02893988
-0.042045575 0.34960818 0.054108258
-0.021625709 0.1573042 0.06502188
0.095010795 0.019502725 -0.017496305
0.058130562 0.31468433 -0.036557373
0.0006405756 0.093132168 0.055574205
0.063450895 0.068934262 0.072464108
-0.019899657 0.20448297 -0.065545425
-0.012435149 0.28135094 -0.06760633
0.056453638 0.30513969 0.039187677
-0.0049888487 0.038340878 -0.096242681
0.0071357493 0.093887545 0.096031338
0.065495633 0.13368699 -0.020063905
0.051749054 0.041457172 0.081497081
-0.038111612 0.028007658 0.040350839
-0.029723831 0.00044453287 -0.05634867
0.037729062 0.095085658 -0.088990822
0.079939388 0.099998854 0.0087512713
-0.0019384194 0.10319317 0.06864021
-0.027954131 0.38807693 0.027624147
0.054555032 0.073125497 0.010897595
0.045421977 0.097860001 -0.01904051
0.011346457 0.30942017 -0.067713566
-0.092282765 0.072835602 -0.027418496
0.014183523 0.35634547 0.067279451
0.039721683 0.21701467 -0.056015309
-0.052405234 0.0846081 -0.081146285
-0.032271478 0.25135779 -0.060421426
0.08446414 0.05980745 -0.04619791
0.028971599 0.31542754 0.062185332
0.054235946 0.37391907 0.041889958
-0.049454138 0.33989483 0.047716592
-0.085035294 0.085595295 -0.045129333
0.066528462 0.17397138 0.016659254
-0.037550732 0.016506623 -0.04081108
0.03436001 0.0063976175 -0.090177044
-0.09216588 0.022659544 -0.027803842
0.041879695 0.071351565 0.086772345
0.025952203 0.07819242 -0.048910853
0.0016576467 0.37350604 0.068667859
-0.025967572 0.048540801 0.092722967
-0.035011094 0.3880769 -0.024718057
-0.038636029 0.013507038 0.039920464
-0.079934694 0.029468803 0.054347955
-0.058208972 0.29081827 0.036410823
-0.095357485 0.026168365 0.013976913
0.067694977 0.23179762 -0.011535441
0.0055661127 0.027549384 -0.096185826
-0.012561766 0.17969371 0.06759391
0.092294998 0.036841363 -0.027378062
-0.067337617 0.34976369 -0.013991823
0.052950956 0.02992478 0.080854647
-0.083300598 -0.00058783044 -0.040149085
-0.047888614 0.3528769 -0.049312938
0.029235521 0.38807696 0.025658676
0.071132712 0.036304917 0.065073177
-0.014962814 0.351235 -0.067042992
0.006372585 0.052825239 0.055009637
0.057684381 0.052517597 0.077196568
-0.031269923 0.0060177175 -0.045965582
-0.085777566 0.099998854 0.043701217
-0.065398127 0.24140604 0.020385467
0.038174901 0.067465968 0.040298846
-0.01983765 0.3880769 0.064471461
0.0069725723 0.38807693 0.024895998
-0.096290603 0.073329352 0.0045028157
0.05831394 0.027353531 -0.076679774
0.083037511 -0.00025281726 0.0045390772
-0.065488517 -0.00069578842 0.069656268
0.010480639 0.041633788 -0.095701791
-0.065140344 0.15823123 -0.021235213
0.061302193 0.012041776 -0.074227378
-0.060924217 0.1668576 -0.031330936
-0.018700164 0.033133157 0.052188218
0.036353961 0.0071181529 0.041793261
-0.0071292599 0.0042177145 -0.09603186
-0.082412221 0.099998862 0.0025380803
0.068712518 0.3299478 0.0012037478
-0.02973496 0.073875733 0.091580153
0.0044123703 0.38807696 -0.063774705
0.018907869 0.3880769 -0.059442718
0.03871065 0.26446047 -0.056845043
0.064942144 0.28908303 -0.021888513
0.0029428732 0.024179846 0.055347443
-0.093213409 0.046926178 -0.024350606
-0.046010595 0.028896624 0.084564358
0.080339588 -0.00018699968 -0.013273716
-0.065965317 0.1162437 -0.018515641
0.0058690603 0.37777486 -0.06825304
0.024194174 0.097860001 0.0023148837
0.073819913 0.099998854 0.029013637
0.0026664303 0.020615021 0.096471541
-0.045360673 -0.00036200858 -0.073400468
0.023475524 0.00046902889 -0.058740977
-0.056599408 0.13276584 0.039010078
0.032503668 0.32699278 0.060297392
-0.045547921 0.38807696 -0.015250374
0.064212672 0.30396318 -0.024293246
0.067240931 0.2625154 0.014310558
0.06630785 0.28600076 0.017386492
-0.094259985 0.073634468 0.020900505
0.016879646 0.0072494526 -0.095071539
0.067334078 0.34345526 -0.014003428
-0.058277223 0.29443392 -0.036283098
-0.080617867 0.079355456 0.053393926
-0.052888278 0.051473916 -0.080888085
0.013556386 0.0035663773 -0.053748485
0.010704723 0.034476131 0.095679834
0.014117238 0.37943465 0.06729956
-0.0048552076 0.2492383 0.06835293
0.064435281 0.17962481 -0.023559405
0.021356096 0.1361043 0.065103695
-0.089942813 0.08756312 -0.035132185
-0.067729659 0.17107767 0.011183307
-0.0042999177 -0.00023386936 0.082532212
0.051618908 0.29406372 -0.045078762
0.077404417 0.097043917 0.057431098
-0.039687503 0.042015422 0.087944143
-0.061094593 0.37476438 0.031012218
-0.054418936 0.015528878 0.011346379
0.091843478 0.086762376 -0.028866561
0.042914171 0.13207906 0.053395428
0.058261856 0.11166819 0.036311828
-0.0079543283 0.013238262 -0.05485379
-0.054056589 0.0036594714 0.012540891
0.069257215 0.080379918 -0.06735836
-0.070006907 0.099998847 -0.044251252
-0.086511426 0.07828477 0.04236776
-0.038800091 0.099998862 0.087980315
0.043174069 0.031091632 0.03467143
0.050133869 0.35525396 -0.046888299
-0.086570449 0.0060144416 0.042257331
0.024355019 0.23693493 -0.064193889
0.035401337 0.26318917 0.058748551
0.054347731 0.0054358332 0.07993488
0.015437427 0.38807693 0.032367431
-0.041569371 0.076674558 0.086938255
0.032764554 0.097859994 -0.021884102
0.081462711 0.027299391 -0.051813163
-0.021859689 0.30756694 0.064950898
0.054649886 0.030767797 0.010024622
0.085325383 -0.00043732184 0.022590593
-0.068758361 0.2712523 -0.00073829707
-0.03714012 0.3203153 -0.05781908
-0.062375691 0.084094599 -0.073346399
-0.080614783 0.0018052291 -0.053399548
0.025868421 -0.00035725939 0.082006574
0.05054725 0.38807693 -0.024703151
-0.062053595 0.16730331 0.029218063
-0.0070284414 0.097860001 0.045545522
0.022118485 0.038185552 0.093890585
-0.063628912 0.099998854 -0.064613901
0.096473373 0.055284444 -0.0026469354
0.06818752 0.00027235787 0.006443358
0.047722783 0.099998854 -0.070271753
-0.092162676 0.059608229 -0.027814372
-0.068683162 0.34365579 -0.0015017912
0.040531307 0.080134101 -0.087492973
-0.0051844539 0.31152004 0.068320498
0.02833437 0.066338703 0.047637623
-0.053853583 0.31812435 0.042355858
-0.068406045 0.13035113 0.0043155747
0.048778616 0.041872997 -0.026199559
-0.02166824 0.36856309 0.065008976
0.0046874988 0.034561865 -0.055175558
-0.00047723387 0.097860008 -0.012976134
-0.048079621 0.38807693 -0.04734749
-0.010459507 0.00070353324 -0.055753831
-0.056886401 0.23438767 0.038660366
-0.042012934 0.18104857 0.054135047
0.077188469 0.061447978 -0.057694111
-0.067354605 0.38588279 -0.013935814
-0.058280081 0.25886607 0.036277786
-0.040923215 0.00066100043 -0.041048553
0.057346705 0.30331692 -0.038023856
-0.028401759 0.064994141 0.047601622
-0.012590994 0.1278789 -0.067590974
0.025333993 0.12452102 0.063897014
-0.028092396 0.26631147 -0.06265521
0.047403652 0.019802243 -0.083819628
0.08544863 0.089689538 -0.044356059
-0.043786328 0.086207084 0.033925463
0.096188635 0.080533855 -0.0055379141
-0.038555093 0.15410675 -0.056972701
0.065965138 0.38689488 -0.01851619
-0.041368905 0.28809857 -0.054663491
-0.038893297 0.085657127 -0.039709274
0.0017726116 0.012347719 -0.09655945
-0.055889688 0.19334058 0.03987487
-0.01787002 0.07289134 -0.052439947
-0.043980595 0.037105292 -0.033688676
0.05548634 0.052111968 0.0015320705
0.001859421 0.078150496 0.055454157
0.096440174 0.023188077 0.0029841759
0.057886157 0.18232459 0.037014708
-0.06842684 -0.0003625633 -0.052391928
-0.041546017 0.00031046316 -0.053136908
0.095088609 -0.00068801484 0.0055466695
0.030453315 0.023190165 -0.091362134
0.03440981 0.099998854 -0.074528106
0.056154076 0.34858948 -0.039552607
-0.026687898 0.011327061 -0.092504345
0.036904011 0.037979547 0.08940544
-0.052501958 0.27306229 -0.044002797
-0.066648006 -0.000214158 0.048059978
-0.070453428 0.068157479 0.065900899
-0.024470637 0.099998862 -0.065503344
-0.059193511 0.20578387 -0.034568843
-0.096078396 0.087219931 0.0066573499
-0.0065586055 0.3602007 0.068185158
0.059042178 0.15380019 -0.034851871
0.023400327 0.24971768 0.06448359
-0.063122183 0.19186676 -0.027218847
-0.034861594 0.35735688 0.05903706
0.013672673 0.18234281 -0.067434378
-0.025500236 0.28411877 -0.063846529
0.036585204 0.099998862 -0.062116906
0.0059204544 0.097859994 0.036909554
-0.068359062 0.030793322 -0.06843596
-0.085556291 0.065590225 -0.044154603
0.023509638 6.7106368e-05 0.070400655
0.0098301787 0.014420448 -0.054669037
0.050143946 0.38807696 -0.012858458
0.049986344 0.016095722 -0.023940047
-0.055357438 0.024140153 0.0028414258
0.037805386 0.17139883 -0.057463452
0.053931113 0.062554337 -0.080276676
-0.055443481 0.13107929 -0.040418562
0.048893426 0.33280236 0.048399884
0.047800593 0.082293451 -0.028029324
0.06754525 0.21775156 0.013055764
-0.053993274 0.083078742 -0.012749629
-0.068617061 0.15097857 -0.002172994
-0.065620124 0.0134623 -0.070683748
0.091735519 -0.00061899872 -0.018847989
0.057380769 0.25366741 -0.037960116
0.012320689 0.3372308 -0.06761761
0.068679892 0.36514282 -0.0015350254
-0.036251523 0.097860001 0.015239847
0.094161898 0.051015478 0.021223925
0.035630826 0.38807696 -0.03382533
0.018207075 0.097860001 0.039925635
-0.0097795548 0.38807693 -0.002582985
0.013406466 0.18209042 0.067510709
-0.022918237 0.34259894 0.064629786
0.042108167 0.37741452 0.054056887
-0.06494347 0.10442219 0.021884307
-0.012415521 0.37775046 0.067608304
-0.025616003 0.16764733 -0.063811406
-0.027321333 0.097860001 0.025822837
0.068239138 0.25145876 -0.0060102683
0.021281958 0.091903418 0.05140508
-0.067281395 0.20959696 -0.014177147
0.067752317 0.21177429 -0.010953264
-0.087940671 0.099998862 -0.012842409
-0.028884856 0.099998854 0.072872438
0.049276408 0.017750528 0.02526835
0.025217781 0.3287921 -0.06393218
0.0077017765 0.097859994 -0.040650565
-0.091324486 0.0093741016 0.030577566
-0.068463929 0.19090365 0.0037278361
-0.096346751 0.037177522 0.0039327731
0.055387318 0.24672538 0.040487003
-0.084983148 0.017215226 -0.045226879
-0.029599233 0.38807696 -0.038745482
0.064092077 0.12205063 -0.024690801
0.047159337 0.099998854 0.057291061
-0.074953258 -0.00066788925 0.057812199
0.06763719 0.15125741 -0.01212216
0.019844176 -0.00067524804 0.094580494
0.082117431 0.070501432 -0.050588302
-0.088212959 0.076433554 -0.039184317
-0.073468424 0.099998854 0.014436002
-0.066169821 0.092324488 0.070232719
0.067794845 0.35641181 0.010521532
0.050729785 0.38807693 0.013942987
0.062330451 0.22035991 0.028700059
-0.019103909 0.38807693 0.037610807
-0.068342909 0.2295424 -0.004956637
0.043799605 0.097860001 -0.0017545469
0.074364386 -0.00012871405 -0.029185349
0.063374884 0.21963584 -0.026746014
-0.047744222 0.12212396 0.049431477
-0.057550427 0.094742239 0.077306479
-0.046973217 0.32495984 -0.05006418
-0.064195454 0.17998415 0.024350174
-0.01499051 0.19322565 0.067034654
-0.067696951 0.011415371 0.068979435
-0.067528903 0.00027632594 0.012006006
0.02580604 0.083559819 0.092771977
0.090524025 0.099998854 -0.028235497
-0.028030491 0.18977307 -0.062688291
0.066962376 0.22932236 0.015228844
-0.051808905 0.05135433 -0.019950366
-0.068707995 0.30145329 0.0012496371
-0.043657742 0.10195944 -0.052785091
0.092910312 0.062906712 0.025349882
-0.022331493 0.35514787 0.064807773
-0.0028240243 0.043087106 0.055359147
0.085939296 0.0936094 0.0434382
0.092839144 0.048283216 -0.025584221
-0.0088794539 0.13134821 0.067956582
-0.056601115 0.38807696 -0.0048030964
-0.038661122 0.045872707 -0.088492617
-0.058047712 0.099998854 -0.052098449
-0.068791971 0.20715135 0.00039699103
0.011049101 0.010645279 0.095645919
0.036042597 0.048562638 -0.042048734
0.014695187 0.02280313 0.095286816
0.060481019 0.17178327 0.032160081
-0.058728978 0.11639648 -0.035437919
0.0026604147 0.075027697 -0.09647201
-0.027719198 0.26695055 0.062854737
0.052563891 0.017497571 0.081061535
0.038159367 0.044709247 -0.088760808
0.064516529 0.23527621 -0.023291567
0.053656403 0.33653563 -0.04259605
0.063209824 0.00026057503 -0.027730256
0.0012202344 0.28204817 0.068710938
0.042600866 0.01398297 0.086386874
0.067837931 0.24915016 0.010084007
-0.019754572 0.082665786 -0.094607525
0.059566386 0.14189793 0.033871237
0.095673494 0.015066423 0.010768452
-0.050543282 0.34141359 -0.046389431
0.04136822 0.097859994 0.026967121
-0.047552772 0.099998854 0.075863265
-0.055588834 0.0356455 -0.0004920463
-0.06958627 0.034329418 0.066957548
-0.077767529 0.099998847 -0.030527692
0.049772862 0.38807693 0.00029340727
-0.023766877 0.097860001 0.011512295
-0.094912224 0.087786324 -0.018497892
-0.038246796 0.36261958 -0.057225719
0.03440759 0.14130162 0.059279729
0.049838364 0.16180998 -0.047248363
0.016236298 0.22493377 0.066656761
-0.017738776 0.093352243 0.052479845
0.028097913 0.022678534 0.047764018
0.066899382 0.36662686 0.015436497
-0.055348467 0.014133113 -0.0029325106
0.049107432 0.058372695 0.082909055
-0.023932474 0.3880769 -0.051226784
0.055305582 0.063584775 0.0033672932
0.041624296 0.38807693 0.036378227
0.010839586 0.059331957 -0.054569617
0.082845174 0.0060245059 0.049226888
-0.035013944 0.14288698 0.05895564
-0.011766077 0.097859994 0.032282606
-0.010328152 0.15762061 -0.067813843
0.04438835 0.17868182 0.052185602
-0.016769072 0.065089986 0.052774005
0.021925388 0.066612422 -0.093949042
0.066557266 0.26635158 -0.016564189
0.022935892 0.054531053 0.09364263
0.0088468464 -0.00053506118 0.090493411
-0.031527933 0.099998847 -0.090964824
-0.095149487 0.022201309 -0.016088834
-0.014048052 0.092515968 -0.053599324
0.095115401 0.086495385 -0.01643437
-0.034864582 0.23696244 0.059035469
0.033696268 0.22748166 -0.059659839
-0.070516579 -0.00014334565 -0.037867866
-0.050942171 0.16933136 0.045903429
-0.045709755 0.25433603 0.051101126
-0.027976444 0.33179563 -0.062717184
-0.055662341 0.10082366 0.040151902
0.096591897 0.041645348 -0.0014436964
-0.019580036 0.090118371 0.094660573
0.020172782 0.099998854 -0.068807818
-0.047610212 0.01324704 0.02838568
0.050001565 0.31876752 0.047049597
-0.065976374 0.31397653 0.018479237
-0.080156393 0.025804359 -0.054077733
0.047022551 0.00017914768 0.053362597
0.060725998 0.34020704 -0.031701706
0.093825854 0.073338293 -0.022331454
0.053889103 0.049741719 0.013092882
-0.029964989 0.3255741 0.06165434
-0.066191323 0.2733126 0.017770618
-0.068138324 0.23690368 0.0070338608
-0.046570558 0.37466916 -0.050394632
0.029007668 0.00032730075 0.060425114
-0.011782082 0.021694249 0.054286797
0.067992188 0.0087349573 0.068737164
0.069651447 0.00014822996 -0.018214041
-0.016784741 0.05318189 -0.095080882
-0.096305162 0.049435612 0.0043550241
-0.046804443 0.052838124 0.029893165
-0.047935188 0.24081424 0.049274746
0.043952908 0.065217339 -0.085664093
0.063782677 0.11362744 0.025710782
0.068344079 0.1658023 -0.0049447054
-0.094967812 -0.00069213845 -0.0079419343
-0.053518321 0.11508283 0.042764388
-0.039809085 0.097860001 0.033411723
-0.053914502 -0.0006840647 0.078733444
0.010949812 0.295423 -0.06775263
0.023797799 0.097859994 -0.015051882
0.058866914 0.099998847 0.061912376
-0.047724057 0.036914311 -0.083648399
0.061689783 0.17059407 -0.029898591
0.075488992 0.083881319 0.059765045
-0.032589167 0.3724494 0.06025169
-0.0016305631 0.10133157 -0.068670489
-0.034741491 0.11240248 0.059101269
-0.032009769 0.12382326 -0.060561307
-0.038932066 0.33841708 -0.056663342
-0.056034315 0.21553774 -0.039698634
0.025998415 0.30530173 -0.063695371
-0.093073465 0.029133165 0.02481197
0.064534746 0.38807693 0.011888567
0.029977271 0.13771962 -0.061647687
-0.035901483 0.099998854 -0.067608409
0.041384079 -4.9610117e-05 -0.065683961
0.046040431 0.071273364 -0.031178705
-0.028093336 -0.0004390775 -0.08370693
0.036285628 0.033194374 -0.089592919
-0.042072941 0.00011319842 0.059795123
0.086698435 0.059900336 0.042017948
0.034978069 0.09484908 0.08998967
0.080063604 -0.00070592854 -0.053165905
-0.0790461 0.067079112 -0.055430617
0.065768257 0.2499986 -0.019165199
0.013722651 0.3297829 0.067419261
0.034538094 0.21941549 0.059209961
-0.014606496 -6.0086579e-05 -0.076664947
-0.068579234 0.28897309 0.0025570521
0.050144318 0.074340448 0.0236446
0.080761343 0.011400171 -0.053125344
-0.079391293 -0.00014784951 -0.011804841
0.095535226 0.0079264874 -0.01217194
0.068719491 0.099998862 -0.024963334
0.064633824 0.21091749 0.022904973
0.065562755 0.2016384 -0.019842653
-0.057843156 0.1432379 -0.037095174
-0.021915821 0.064237684 -0.093951926
-0.054526035 0.034381252 0.010993335
0.040464491 0.36585489 0.055405803
-0.016367966 0.00065172993 0.055592548
0.064907856 0.34246254 0.022001613
0.070446767 0.099998847 0.045547344
0.058803469 0.29159826 -0.035298463
0.022310305 0.38807693 -0.0097345365
-0.059450876 0.24723302 0.034087393
0.057355072 0.23758647 -0.038008194
0.047356844 0.35760516 0.04974943
0.037754908 0.3880769 -0.0062778573
0.052432988 0.16041581 0.044086892
0.040248457 0.33958125 -0.055583004
-0.058798656 0.18350108 -0.035307568
-0.035394367 -0.00010959591 0.070775673
0.047005553 0.36610705 -0.05003763
-0.060507383 0.063628808 0.074879773
0.044396058 0.0006779051 0.036104038
-0.01594192 0.25950557 -0.066745989
-0.088996761 0.041910987 -0.037717927
0.095115617 0.074781336 0.016432757
0.055965565 0.12737538 0.039782412
0.015192464 0.14704707 -0.066973351
-0.012326081 0.097860001 -0.020163555
0.044340793 0.25932026 0.052224625
-0.071781278 0.062521897 -0.06428279
-0.032800358 0.039792132 -0.044709593
0.088191889 0.049859405 -0.039223783
0.061754771 0.35315365 0.029777059
-0.084299281 0.049824722 -0.04650633
0.063871078 0.16036065 -0.025419336
-0.092392303 0.099998854 0.017555706
-0.033834878 0.097860001 -0.0086009074
-0.0017357402 0.097860008 -0.052409392
-0.020275436 0.060247678 -0.051710274
0.042726509 0.060863085 -0.035216726
0.0078092781 0.26687065 0.068061978
0.0035202818 0.34513277 0.068484403
-0.036618613 0.27433416 -0.058097828
-0.04321133 0.065996781 0.034626096
-0.0513358 0.29748729 -0.04542375
-0.067801498 0.3284519 -0.01045389
0.067447416 0.096305631 -0.069184124
0.053231239 0.0032255908 -0.015261483
-0.029962661 0.023707023 -0.046767235
0.059735611 0.31717491 0.033554632
-0.043239038 0.068578467 -0.086045682
0.035571463 0.36522466 -0.05865752
0.020683283 0.37732387 -0.065307714
-0.061201274 0.38801825 0.030812634
0.029418785 0.075259916 -0.091675952
0.038946819 0.19881131 -0.05665122
0.081045024 0.032033328 0.052594729
-0.021847796 0.0094504552 0.051104795
-0.040134277 0.30376267 0.055676825
0.075101338 -1.2244784e-05 0.0156083
0.0021527782 0.1815199 -0.068619058
-0.092078842 0.084979042 0.028090797
0.063556843 0.041917853 -0.072377034
-0.05348577 0.00056349643 -0.028068185
0.059334245 0.18341021 -0.03430545
-0.011019457 0.38090953 -0.06774576
0.036424953 0.079998434 0.041734993
0.018128233 0.28250539 0.066082843
-0.056778494 0.027677899 -0.077939913
-0.046111133 0.097860008 0.0008832686
0.038060863 0.35240638 -0.057326902
-0.062024042 0.022675185 0.073635086
0.080775566 0.068923004 0.053098839
-0.022360401 0.3880769 -0.0088887699
0.064764783 0.16297932 0.022473253
-0.055499513 0.048879579 0.0013989055
0.046916153 0.28490466 0.050111096
0.046752911 0.099998854 -0.056401812
-0.022921408 0.14988977 -0.064628795
-0.051886667 0.22129971 0.044752557
-0.064683586 0.32966644 0.022740997
0.056522261 0.32759336 0.039104059
-0.0042247283 0.3880769 0.033491645
0.064107187 0.31799066 -0.024640998
0.027034873 0.10648029 0.063220546
-0.029159864 0.38807696 0.043825854
-0.03036168 0.24863386 0.061442308
0.055685658 0.3880769 -0.038498741
-0.020414216 0.29420319 0.06538938
0.034102406 0.18206438 0.059442855
-0.048840646 0.097860001 0.018773163
0.014675514 0.36756641 -0.067130178
0.058616351 0.19859254 -0.035648521
-0.06722755 0.29410091 -0.014354648
-0.025036464 0.13138302 0.063987233
-0.068310797 0.37767863 -0.0052826493
-0.0017979684 0.097860001 -0.03260231
0.033436894 0.38711852 0.059798565
0.086888872 0.0467798 0.041661687
-0.030828321 0.052036218 -0.046304535
0.061104234 0.2004299 0.030994138
0.062880851 0.18890108 0.02767032
-0.083183117 0.036807556 -0.048594512
-0.0082492186 0.23596334 0.068018652
-0.028054992 0.099998847 -0.07747864
-0.065873593 0.13532101 0.018818062
-0.054839138 0.23065108 -0.041154947
0.019531967 0.031488862 0.051935926
-0.067091368 0.37155202 0.014803565
0.035286929 0.095692813 -0.042668894
-0.018463425 0.0028997615 0.094915614
0.011740345 0.30162656 0.067674801
-0.034957279 0.088606097 0.042939533
-0.032525558 0.071688958 -0.090733536
0.02260259 0.19986856 -0.064725488
0.07489083 0.0050286003 0.060493909
0.04396243 0.18565674 -0.052535035
0.070807733 0.023076916 0.065469168
-0.063339837 0.15476394 0.026811682
0.0057436186 0.056478404 0.096168458
-0.0084250318 0.3880769 0.043995839
0.04719466 0.38807693 0.04936843
-0.080829255 0.015834037 0.05299845
-0.04420137 0.13933682 0.052339043
-0.053346898 0.030107487 -0.014880392
0.018789029 0.38807696 -0.031920243
0.088698171 0.080859214 0.038276695
-0.017186658 0.037326921 0.095041372
-0.012167096 0.3007032 -0.067632727
0.013811395 0.1961748 0.067392342
-0.070921123 0.088005878 -0.065330893
0.0077697826 0.087291449 -0.054871973
0.0025884931 0.11998215 0.068576187
-0.034769837 0.060051769 0.090052858
-0.068236925 0.3156327 -0.0060327454
-0.033935063 0.084693186 0.090306088
0.055403553 0.38807693 0.024673579
-0.07790152 0.099998862 -0.018925451
-0.0056903893 0.00054503977 0.060648769
-0.050951984 0.15056589 -0.04589143
0.02487842 0.34028062 -0.064035118
0.0062743821 0.23987463 0.068213165
0.025069343 0.099998847 -0.092443697
0.064472973 0.24944705 0.023435207
0.050129093 0.088179946 -0.08236286
-0.0096271262 0.066130973 -0.095785841
-0.051337291 0.19141456 -0.045421924
-0.062817276 0.22716646 -0.027789287
0.012029613 0.16255152 -0.067646272
-0.031180926 0.10140259 0.061004423
-0.060371306 0.30841446 0.032365385
0.067745604 0.30997765 -0.01102145
0.063494183 0.032125738 0.072428577
-0.049960215 0.38807693 0.0098151853
0.035756815 0.055486947 0.089753442
-0.045939755 0.074931882 -0.031301446
0.013851012 0.38807693 0.00070507155
-0.004820379 0.099998854 -0.090025201
-0.029830627 0.38807696 0.0088475402
0.093187265 0.061204616 -0.024436625
-0.020368146 0.022937905 -0.094421402
-0.067565285 0.16536532 -0.012852341
-0.058064263 0.34769726 0.036681544
-0.068198889 0.31412697 0.0064189513
0.054505885 0.088571444 -0.011059565
0.054079432 0.0088039162 0.012465447
-0.040219951 0.0525157 -0.038271029
-0.016229793 0.3880769 0.0067692664
-0.047963683 0.19786319 0.049251363
0.0049235756 0.13166358 -0.068346158
0.040598474 0.018117739 0.037809793
-0.060580276 0.036325831 0.074819952
-0.088464171 -0.00049897988 0.018144969
0.094382897 0.0067084967 0.020495411
0.060605492 0.32662833 -0.031927146
-0.095623389 0.005526829 0.011277163
0.058092665 0.37618825 -0.036628276
0.043057434 0.34299144 0.053277843
-0.067734413 0.21608037 0.011135005
-0.052895948 0.05144209 0.016367016
-0.018351451 0.037740968 -0.094926566
0.050397545 0.14943492 -0.046567
-0.058936637 0.00011582635 -0.043003645
-0.064641744 0.36632165 -0.022878857
0.0062583904 0.38807693 -0.035494357
0.067376196 0.13676408 0.013864661
-0.017170101 -0.00069716078 -0.094198965
0.052571382 0.13880472 0.043918256
-0.074801534 0.038468312 -0.060602617
-0.052354451 0.086921632 0.018152088
0.051357768 0.10732728 0.045397058
-0.05488978 0.09469343 -0.007589594
0.0091372691 0.2497808 -0.067931145
-0.018675579 0.078393862 0.094894722
-0.064786538 0.1728355 -0.02240153
-0.019315965 0.38807693 -0.023842683
-0.019062085 0.24473599 0.065799557
-0.065330423 0.26018059 0.020608665
0.045369688 0.042892169 0.03199606
0.0011269021 0.38807693 0.051986415
0.048065174 0.20550258 0.049168125
0.046266235 0.0007308718 -0.031505235
-0.0099785374 0.11755728 0.067848332
0.018249894 0.38807693 0.044621099
-0.069684952 0.051710401 0.066837296
-0.038595654 0.38807693 -0.0052359835
0.031851105 0.38408613 -0.060646106
-0.064150684 0.21641466 -0.024497654
-0.054531824 0.042565629 -0.010974293
-0.063505523 0.29248384 -0.026501674
0.022498842 0.26522446 0.064757042
0.026790513 0.22779173 0.063351154
-0.065033801 0.22556069 0.021586502
-0.057348691 0.37050363 -0.038020257
0.055000842 0.02004485 0.0064613251
0.054911632 0.14961249 0.041066635
-0.066567644 0.19669753 0.016530056
-0.014378882 0.078945115 0.053499062
-0.067496926 0.049057797 -0.069143496
0.086180329 0.01322598 -0.042987138
-0.085871615 0.099134505 -0.043564662
0.061015103 0.099998854 0.035294876
0.0069124061 0.048636042 -0.054956418
0.051361475 0.041889984 0.02136746
-0.034208816 0.0043751714 0.090223044
0.067968912 0.20516162 0.00875411
0.023623919 0.097105466 0.093433917
0.065112159 0.099998847 -0.048009764
-0.067752846 0.24950632 0.010947919
0.079587393 0.099998854 -0.043185305
0.05264277 0.19238839 -0.043831162
-0.02723101 0.38340256 -0.063115634
0.021303982 0.07715328 0.051395498
-0.049119692 0.20370463 -0.048124067
-0.023404149 0.11686026 0.064482391
0.044446062 0.025077233 -0.033121441
0.045583032 0.082352474 0.031736102
0.047088597 0.033627231 -0.083988033
0.036832396 0.082217231 0.089427158
-0.093230002 0.034476794 -0.024295932
-0.066692598 0.28674382 0.016118145
0.061502665 0.017107414 0.074062973
0.034234717 0.00042989227 -0.054398797
-0.036351886 0.097860001 -0.039148156
0.038821135 0.27530935 0.056754466
0.068075664 0.16723557 0.00767022
0.019133391 0.052692197 0.05205683
0.067919739 0.11183318 -0.0092533128
-0.035703938 0.12628888 0.058586836
-0.034473959 0.00070322643 0.044823766
-0.016336856 0.097860001 -0.040369332
-0.021367939 0.24700728 -0.065100037
-0.088144228 -0.00042947364 0.002766171
0.0093440162 0.097860001 -0.022065459
-0.030831976 0.28470337 0.061190929
-0.045647651 0.25732902 -0.051152032
-0.042782489 0.38807693 0.045027044
0.086344413 0.023601469 0.042680271
0.009593497 0.38807693 -0.047313172
0.040816203 0.037469223 -0.037544433
0.050236691 0.25253102 -0.046762999
0.048008036 0.24252982 0.049215011
0.092208892 0.040458608 0.027662169
0.071320035 0.069124229 -0.064844817
-0.039917599 0.22179407 0.05585466
0.012256947 0.097860001 -0.0046757753
-0.053036612 0.0012311303 -0.015903248
-0.051720109 0.37755662 0.044955499
0.054685485 0.05630862 -0.0096631395
0.019545432 0.13585271 -0.065652877
-0.046388652 0.099998862 0.06342908
-0.068133496 0.11724021 -0.0070829634
-0.089835659 0.036243543 0.03548554
0.021096861 0.022518018 -0.051461108
-0.090410843 0.099998854 -0.032418624
-0.049048953 0.27377 0.048210319
0.059214558 0.25659296 0.034529444
0.064032473 0.27554911 -0.024887294
0.02051397 0.12294774 -0.065359071
0.05018555 0.089424722 0.02356746
0.022469291 0.25148761 -0.064765923
0.076937087 0.097765729 -0.058000419
0.07290633 0.017713726 -0.062911913
0.020103494 0.065105565 -0.051762447
0.053222161 0.26719439 -0.043125175
-0.068262823 0.26001194 0.0057698069
0.010492789 0.060835082 -0.095700592
-0.039577652 0.085543968 -0.088002734
-0.024416782 0.29532674 -0.064175189
-0.029443452 0.064898178 -0.047044758
-0.053479429 0.063699603 -0.014443507
-0.036051486 0.20989749 -0.058400959
0.071967699 0.0033911199 -0.064055629
-0.059751142 0.33583108 0.033525627
0.040596414 0.11218631 -0.055297431
0.058662087 0.27700511 -0.035562962
-0.018481214 0.10448722 0.065975755
0.051972236 0.097860001 0.010768207
0.051611554 0.21977091 -0.045087714
0.055218078 0.0067285602 -0.0042557116
0.061924066 0.074336424 -0.073717013
0.023727732 0.097860001 0.026662039
0.002300685 0.38807693 -0.003492933
0.019145019 0.28639716 -0.065774351
-0.013028142 0.22507694 0.06754797
-0.068432726 0.13802591 -0.0040446208
0.0097676497 0.099998854 -0.080519281
0.024101358 0.38807693 -0.042453896
-0.037213933 0.11364402 -0.057779614
0.0563775 0.36113325 -0.039280362
-0.021916883 0.061732858 0.093951717
0.067603104 0.29483888 -0.01246825
0.057269666 0.2126926 -0.038167976
-0.059068903 0.27212444 -0.034801979
0.057518046 0.10005385 -0.037703291
-0.033297021 0.37445992 -0.059873272
0.058620974 0.22539303 -0.035639882
0.05290626 0.13847134 -0.043510102
-0.044891272 0.2120301 0.051772848
0.027571252 0.27300477 -0.062933743
0.07685823 0.036436848 -0.058096506
-0.083689541 -0.00045884898 0.030043708
-0.039368186 0.31547999 0.056305546
0.042458188 0.099998854 0.083109558
0.056181286 0.23481533 0.039519548
-0.059899911 0.27270725 0.033247303
-0.030770605 0.2096768 0.061223738
-0.061767139 0.34419417 -0.029753957
0.043716419 0.1574592 0.052737035
-0.042653274 0.36858386 0.053609528
0.072116286 0.061781425 0.063874699
0.03318141 0.1964362 0.059935138
-0.073140047 0.098639533 0.062627234
0.012237974 0.19456181 -0.067625754
-0.05169582 0.074111506 -0.020323133
-0.050172281 0.32781267 0.046841536
-0.0035654882 0.3880769 0.0079597468
0.08067666 0.016812468 0.053283893
0.096309975 0.067618072 -0.0043060202
0.061113514 0.37923378 0.030976765
-0.034438476 0.097860001 0.0038898168
-0.060382146 0.32156479 0.032345109
-0.023111364 0.097860001 -0.025608024
0.068297572 0.35451514 -0.0054169907
0.05090056 0.028772941 0.022229774
-0.030422706 0.1354972 -0.061409626
-0.051312905 0.02525891 0.021458382
-0.017639769 0.23628731 -0.066230953
0.041718975 0.27914 -0.054376189
0.038288824 0.11121994 0.057191327
0.067848861 0.37709853 0.0099730333
-0.064701647 0.21367654 0.022681458
-0.057794239 0.17752373 0.037186731
0.059727266 0.090401277 -0.075519897
0.011026203 0.097859994 0.051209938
0.05279395 0.10985953 -0.043646947
-0.038969845 0.16542318 -0.056632333
-0.01893246 0.367356 -0.065838829
0.056349579 0.38807693 0.036439486
-0.073093191 0.083255842 0.062684342
-0.018009223 0.18013984 -0.066118874
-0.017727576 0.094485067 -0.094988026
-0.054146577 0.2606577 -0.041998837
-0.061866399 0.12814349 0.02956829
0.00034088126 0.38807693 -0.014912868
-0.076697096 0.042857625 0.058292974
0.028529294 0.099998854 0.080203712
-0.051041141 0.18097751 0.045782831
0.0071191043 0.26797831 -0.068129927
0.035065364 0.24201137 -0.058928031
0.062285993 0.36546192 -0.028783182
-0.052590404 0.01303461 -0.017374154
0.06224579 0.23418194 0.028858446
-0.057700764 0.14800951 0.037361607
-0.045090225 0.0072965291 -0.032336593
0.053424172 0.32495233 -0.042879023
0.069265731 -0.00028768921 -0.048090413
0.067346595 0.32210177 0.013962236
0.070156902 0.00020695101 -0.0049883467
-0.016075036 0.015662825 0.095150866
0.042926133 0.025680557 0.086213022
0.021424444 0.38807693 0.011721753
0.049895599 0.11871397 0.047178734
0.022330323 0.097860001 0.014767936
0.043841437 0.1441087 0.05263444
0.067422256 0.33491018 0.013712827
-0.093096502 0.057459339 0.024736015
0.024608074 0.15430975 -0.064117126
-0.0019298088 0.099998862 0.085734032
0.062590964 0.30153114 0.028212661
0.018427735 0.077623151 -0.094919071
0.025624679 0.33563185 0.063808829
0.025335547 0.35869092 0.063896537
0.047128726 0.00010472402 -0.055950254
0.092114449 0.084546916 0.027973482
-0.072900213 0.019647585 -0.062919363
0.040711824 0.30250624 -0.05520273
-0.062682331 0.19203466 0.028041774
0.059464935 0.15790263 0.034061044
0.041881882 0.13803634 -0.054242484
-0.039032809 0.30293307 -0.056580663
-0.075605325 0.099998854 0.027180715
0.081645906 0.099998854 -0.013875408
0.041648079 0.31202593 0.054434463
0.052940439 0.17186557 0.043468554
-0.043916579 0.24148011 -0.052572679
0.00092534343 0.097860001 5.101741e-05
-0.0057098581 0.011615439 0.055074923
-0.044589501 0.055261739 0.085323945
0.038143203 0.38807693 0.014877114
0.059700415 0.33889946 0.033620477
-0.061199166 0.03738736 -0.074311957
0.066902578 0.12046239 0.015425967
-0.050054587 0.35777119 0.046984944
0.066255003 0.37360913 -0.017560644
-0.027700987 0.050091691 -0.092197038
0.069073796 0.098626897 0.067581967
0.039251644 0.31526068 -0.056401066
0.047598325 0.1732765 -0.049551155
0.066788636 0.17095099 -0.015801476
-0.041866194 0.33007872 0.054255471
-0.043133594 0.16287023 0.05321534
0.067897402 0.12319647 -0.0094801039
-0.061210111 0.13443379 -0.030796075
0.050003316 0.18744186 0.047047473
0.067774549 0.099998847 -0.01279485
-0.042571425 0.19294429 -0.053676605
-0.050806414 0.2852993 -0.046068802
-0.020566789 0.33161652 0.065343097
0.040345363 0.37651795 -0.055503473
-0.09130574 -3.3227894e-07 -0.030639268
0.015265352 0.07740131 -0.053230081
0.017203171 0.23623088 0.066363461
-0.05268842 0.283838 0.043775618
0.061393585 0.10921346 -0.030452734
-0.061247434 0.31692716 -0.030726254
0.05533674 0.36043355 0.04054863
