# .PCD v0.7 - Point Cloud Data file format
VERSION 0.7
FIELDS x y z
SIZE 4 4 4
TYPE F F F
COUNT 1 1 1
WIDTH 1260
HEIGHT 1
VIEWPOINT 0 0 0 1 0 0 0
POINTS 1260
DATA ascii
0.043511864 0.044305041 0.17642444
0.021705471 -0.15830688 -0.0070533962
0.16342527 -0.067780778 0.055746943
0.083111741 -0.077000536 0.050588232
0.15955821 -0.064362995 0.085241228
-0.05246757 -0.16336776 -0.034079645
-0.050603412 0.040652879 0.1533366
-0.0072661107 -0.026156256 0.088434264
0.14067146 -0.11361255 0.013381521
-0.098308295 -0.15813363 -0.020111879
0.012950988 -0.081440702 0.029175831
-0.12886836 -0.10534599 0.020933032
-0.14364065 -0.031284947 0.082439557
0.049784556 -0.18569213 -0.026923433
0.11953424 -0.0014664711 0.12897615
-0.037306022 0.04582208 0.15293314
0.11860522 -0.1232815 -0.0015015601
-0.10484429 -0.062853374 0.067476951
-0.14846078 -0.012826801 0.12185628
0.10845295 -0.075975992 0.057934497
0.15166865 -0.010835716 0.10158675
-0.076475658 -0.14884652 -0.0043673469
0.060757611 -0.1666563 -0.032030515
0.048653405 0.048751015 0.18015496
0.13277942 -0.088872902 0.057228286
0.15046206 -0.023955258 0.11914732
-0.14721432 -0.037146203 0.10807879
0.00037250298 -0.14995915 -0.015647175
-0.10284649 0.038469844 0.15573125
-0.089971952 0.048514422 0.16239251
0.0040501305 -0.18116751 -0.012769801
-0.10210196 0.009258098 0.14373183
0.091042154 0.047080521 0.14600597
-0.15280247 -0.0047107851 0.11202171
-0.038270496 -0.16250806 -0.02491783
-0.14602146 -0.11223683 0.045070101
-0.15941273 -0.10425386 0.038350608
0.12126023 -0.13956666 -0.006041198
-0.026629264 -0.055049326 0.053556465
-0.10708848 -0.13272662 0.015193754
0.14061919 -0.086726122 0.031246595
0.10884687 -0.16101789 0.0041379984
-0.10200346 -0.16666079 -0.0040423688
0.09243615 -0.14805517 0.0043231365
0.06507092 -0.05643047 0.062360857
0.020515256 -0.18470363 -0.039815035
-0.024588408 -0.023098355 0.086787045
0.0057862857 -0.11056115 0.019257069
-0.13307455 -0.12035815 0.03825558
-0.15802011 -0.086847425 0.066374369
0.06842792 0.061030217 0.16435449
-0.028071379 -0.029610362 0.083495997
-0.13094008 0.010246797 0.14442812
-0.093337938 0.030835714 0.1346616
0.11101919 -0.12453492 0.01740413
0.13764408 -0.11113338 0.04599607
0.10506536 -0.055540498 0.073374748
0.074820906 0.057768367 0.16838142
0.13027117 -0.10581464 0.036345437
0.063624121 -0.15572554 -0.0076920791
0.072856933 -0.057896327 0.063196562
-0.15209764 -0.06501428 0.047450546
-0.095092446 0.040970828 0.16156268
-0.12866485 -0.12712878 0.002134959
0.12119152 0.019550707 0.14859015
0.074613564 0.046836339 0.1459441
0.14634784 -0.02343742 0.084090807
-0.077584811 -0.17578173 -0.014154361
-0.042230502 -0.16419975 -0.034687258
-0.093117908 0.019071674 0.13680133
0.004523844 -0.055920694 0.063459009
-0.11849295 -0.11664758 0.024503427
-0.067569993 -0.039996091 0.061842922
-0.11742215 -0.084936813 0.04379867
0.11944728 -0.0059219673 0.10972173
0.15232077 -0.10763185 0.048934281
-0.14426674 -0.014216435 0.089981668
0.10216775 -0.15667036 0.0077859126
-0.0088273175 -0.055499956 0.063812047
0.1624493 -0.073560834 0.075086921
0.083896734 -0.14673179 -0.018221362
-0.13920374 -0.010464283 0.095524602
0.14600304 0.0086366981 0.122596
0.14954053 0.00030082747 0.11775742
0.11869846 0.0030095093 0.14177339
-0.087311469 -0.14195785 -0.0055555883
0.012775134 -0.14800616 -0.014869777
0.14785311 -0.062667064 0.08666411
0.0085381726 0.062980741 0.15830907
0.12718076 -0.11972215 0.0035230925
-0.1060015 0.027546685 0.15843736
0.12254588 -0.052542064 0.074631162
0.12265534 -0.0094790664 0.13129428
-0.077821955 -0.040114079 0.061435059
-0.030931026 -0.069116659 0.039656039
-0.15227231 -0.016048402 0.094875537
0.12233485 -0.065165624 0.054841321
-0.15721706 -0.033052213 0.10738767
0.11130735 -0.12414934 0.0059125759
0.034924708 0.066647813 0.16682184
0.13815807 -0.1258743 0.033626992
-0.086848699 -0.16738182 -0.023607871
-0.047534782 -0.046252839 0.054288514
0.11129218 -0.15827306 -0.013410317
-0.12615633 -0.080301173 0.059039481
-0.16162048 -0.078218594 0.071799286
0.010509938 -0.075439028 0.034563355
-0.15909702 -0.097219244 0.052903898
-0.055095743 -0.05947182 0.057359818
0.035042688 -0.17583027 -0.039320063
-0.022966627 0.069390155 0.17545612
0.13659814 0.018175786 0.12537555
0.16344655 -0.029283814 0.089214303
-0.084323555 0.048254434 0.14193985
-0.015181608 -0.030919474 0.08443746
0.028631613 0.053624276 0.15473662
0.13662457 0.0042433045 0.10533492
-0.0085846474 -0.063257702 0.057302531
0.11936808 -0.083947226 0.041854963
0.099344507 -0.076041274 0.04140877
-0.11663181 0.023210377 0.12294994
0.12712076 0.020919016 0.14244893
0.0040557566 -0.16195391 -0.031389851
-0.12156951 -0.050117545 0.066118434
0.15619239 -0.028096182 0.082378484
0.13962391 -0.0049790959 0.097775675
-0.012654465 -0.089121819 0.0310713
-0.057510313 -0.050004736 0.065539233
0.16758172 -0.051058106 0.084503032
0.0055194064 0.07150051 0.16867538
0.060674593 -0.1547797 -0.02169787
0.024783581 0.063936204 0.15601654
-0.088020004 0.020410229 0.15637435
0.065710761 -0.17236257 -0.0053814892
0.017944455 -0.12141913 0.013273739
0.02727483 0.064411871 0.17737266
-0.14120345 -0.04444167 0.10195716
0.10596251 -0.069335423 0.044636969
-0.11783411 -0.0089509366 0.11344012
-0.087410212 -0.054635432 0.048054162
0.062851153 -0.18021041 -0.023129473
0.027537415 -0.18938065 -0.030234016
0.11999682 -0.01841503 0.11566789
-0.13586837 -0.074177437 0.044487368
0.14209428 -0.057171423 0.057334658
-0.033147782 -0.16308393 -0.033111546
-0.10885421 -0.053025346 0.058448415
0.10290433 -0.16683239 -0.00074092211
0.14517288 -0.053328268 0.091707692
-0.11483627 -0.053448197 0.076309241
-0.008881568 -0.14194892 -0.012458752
-0.15273622 -0.11712036 0.040102288
-0.12140679 -0.1480303 0.015035877
-0.047810324 -0.18660964 -0.027274027
-0.14821847 -0.090187468 0.063571692
0.1441038 -0.038998134 0.1065247
-0.10891446 -0.12352914 0.014148078
0.055874817 0.035146452 0.16873957
-0.10005483 -0.07531561 0.05629487
-0.023256715 -0.18328865 -0.014549605
-0.068357386 -0.17912275 -0.01825974
-0.14716813 -0.086506478 0.028820222
0.16223186 -0.092313655 0.042694379
0.12657975 0.017897226 0.1175526
0.0070578614 -0.16668597 -0.038599625
0.13768703 -0.013706746 0.095126912
0.14599292 -0.0042339433 0.10429781
0.063497752 -0.040462736 0.062633537
-0.069631085 0.050030857 0.17465433
0.12113011 -0.014715895 0.1017639
-0.0069250911 -0.15473291 -0.0050839419
-0.11892395 -0.0055407952 0.12208054
0.12862125 -0.013416432 0.10002301
0.077482328 -0.17147768 -0.025862096
-0.013276585 -0.13781334 0.0042396486
0.082535535 0.049910996 0.14308193
-0.091272019 0.050225038 0.15457368
-0.14736891 -0.10978412 0.018511269
-0.036404751 -0.18222894 -0.013660427
0.074544728 -0.06516546 0.039535251
0.13207066 -0.095672801 0.036595546
0.011088778 -0.18713087 -0.017773544
0.1468242 -0.12343318 0.033393793
-0.039581932 0.057778046 0.15343857
-0.10469551 -0.16180867 -0.013276472
0.14718997 -0.064263642 0.048886172
0.13570435 -0.10212886 0.01869748
0.16385719 -0.075972192 0.05043333
-0.030454453 0.053655162 0.15447591
-0.14167294 -0.010645778 0.13031523
0.16831073 -0.036495298 0.085779957
-0.15467189 -0.048005633 0.061612774
0.14591476 -0.075471841 0.039280046
-0.060612354 -0.15736517 -0.030365678
-0.0040878025 -0.096043393 0.027257137
-0.062615812 -0.16485503 -0.031287648
-0.0043034791 -0.12233436 -0.0046512317
0.093167916 0.016334381 0.14550112
-0.044208702 -0.040031046 0.060377803
0.020458734 0.067671224 0.1622635
0.10375667 -0.14538512 -0.017072354
-0.13520277 0.01952132 0.12720738
-0.14546958 -0.099008329 0.020674298
-0.13560146 -0.086373873 0.061490919
-0.087832861 -0.17074049 -0.0040202565
0.14556731 -0.0050565638 0.12645389
0.033017509 -0.032644518 0.07642623
-0.16082275 -0.042706244 0.10162411
0.025220158 -0.05213806 0.066633016
0.12459218 -0.13803126 0.023426048
-0.018633835 0.044432577 0.16398682
-0.067375824 -0.066674441 0.054773856
-0.085981362 -0.077805623 0.049152054
0.14076774 -0.12036257 0.038251877
0.10159031 -0.062369231 0.067028351
0.058297157 -0.17596413 -0.008403562
-0.021057567 -0.1407049 -0.0022455833
0.14155951 0.017208124 0.13110515
0.067409523 -0.071567178 0.050033379
0.14452541 -0.016697416 0.088615082
-0.08659894 -0.15696059 -0.02339497
0.015550488 -0.19197541 -0.021838518
0.09248288 0.02105844 0.15691824
-0.078863546 -0.15004912 -0.024282271
-0.1599396 -0.062112179 0.056540292
-0.13163263 -0.13832742 0.0090109771
0.13631338 -0.040171292 0.083951436
0.11185133 -0.067870878 0.065280028
-0.14020658 -0.025421096 0.087756626
0.10357068 -0.048179626 0.059936821
-0.13613346 -0.017757168 0.124348
-0.042344842 0.03820698 0.16455828
0.084798723 -0.15861616 0.0061393012
-0.16630581 -0.067132823 0.063396797
0.00063907204 -0.13640235 -0.010250946
-0.11277084 -0.14643183 0.016377103
-0.1399131 0.0077132452 0.13586362
0.055639718 -0.064357474 0.046883244
-0.0058435998 -0.18507189 -0.039835576
0.0086354055 -0.17469904 -0.03925696
-0.11561755 -0.15283094 0.011007694
-0.0015112684 -0.073909655 0.041768704
-0.079868317 0.044370376 0.17378667
-0.049583331 0.039651338 0.17251949
0.14694075 -0.11638276 0.041591365
0.046314999 0.056662641 0.1769519
0.027754126 -0.043985188 0.073474094
-0.13198076 -0.02714261 0.11647277
-0.097750574 -0.0588517 0.049214747
-0.14451908 -0.072626486 0.042414006
-0.13201454 -0.10932851 0.0095520308
-0.012312598 -0.19254492 -0.022316383
0.15487902 -0.11430112 0.03989888
0.13308524 -0.056506786 0.079807416
0.1012549 -0.057282951 0.05192576
0.15845044 -0.10338728 0.045653116
0.092453204 -0.16969875 -0.0094036851
-0.031823646 0.041621652 0.17417276
-0.083084546 0.024062451 0.14840905
0.04222367 0.060378499 0.15323494
0.11093748 -0.084940903 0.046554215
0.016709689 -0.11078665 0.01826006
-0.06153138 0.03799817 0.15306896
0.031534154 -0.1605864 -0.025237057
0.10856085 -0.078558117 0.040316492
0.13714096 -0.095110819 0.030693198
-0.16476133 -0.051185854 0.095025502
-0.12514183 0.024584176 0.14239646
-0.043332402 -0.19009681 -0.02026218
-0.10386011 0.041185156 0.14609338
-0.056696694 0.035993788 0.16105528
-0.13049948 -0.0022346938 0.13737288
0.10203654 0.039836112 0.14031792
-0.13782996 0.015332879 0.13549942
0.1083781 0.040085766 0.14872752
-0.074884541 0.027818382 0.15894231
0.091595866 0.020335609 0.13688529
-0.11690921 0.0027866866 0.11961307
-0.057856023 0.05931554 0.17210743
0.020678626 -0.066488653 0.049804416
0.041617285 -0.052088492 0.059784766
0.092421882 -0.16700715 -0.016689671
-0.057728298 -0.18430473 -0.015402027
-0.15212747 -0.034411393 0.074632615
-0.13064419 0.018367827 0.14053574
0.033770129 -0.18517876 -0.039841536
0.045710884 0.064899117 0.16626756
-0.015506302 -0.10445309 0.022622943
0.024862258 -0.069067031 0.042365551
0.0227334 -0.1506649 -0.015928051
0.15536457 -0.058650658 0.054836988
0.14939149 -0.034755614 0.075484119
-0.087978624 -0.050848745 0.072714902
0.01300016 -0.13991944 -0.011650887
-0.10228269 -0.081006847 0.045819197
0.10188914 -0.14302613 0.01210283
0.055827226 -0.063409746 0.054408211
0.10702888 -0.13601956 0.016390372
0.015079501 -0.15497783 -0.0052189021
0.11801331 -0.082309984 0.055341244
0.020632144 -0.13714921 -0.002176835
-0.13623793 -0.053733498 0.081084214
-0.13651566 -0.031934623 0.11245182
0.10946616 0.0051873941 0.13649893
-0.08173684 0.054955367 0.15540791
0.00099835254 -0.1678015 -0.0099322014
0.076372609 -0.14716475 -0.011993401
0.0042975317 -0.067738093 0.042854879
-0.11843929 -0.12656522 0.028228531
-0.1006842 -0.050380789 0.073125534
-0.123075 -0.076261424 0.046592105
-0.036355924 -0.027003445 0.072415665
-0.13934289 -0.086260237 0.032184534
0.14372912 -0.092423514 0.025739575
0.13442586 -0.077776507 0.066438422
0.13656642 -0.066272683 0.07637582
-0.0041945893 0.06780754 0.18163396
0.13525711 -0.053546801 0.063352123
0.09423276 -0.15995137 -0.021503525
-0.15409586 -0.019771501 0.11165471
-0.12523684 -0.069690429 0.067272805
0.048400391 -0.18022142 -0.011975857
-0.16781938 -0.058427099 0.069893576
0.0033504413 -0.19253753 -0.022608923
-0.023118187 -0.15602766 -0.0090381289
0.10774189 -0.06184265 0.051176745
-0.021900171 -0.15230033 -0.016681563
-0.11878163 -0.022229159 0.10595851
-0.01537482 -0.12202436 0.012940223
-0.14192984 -0.096776523 0.058042876
0.0072247358 -0.18693227 -0.036147866
-0.054086462 -0.18508427 -0.022471765
-0.066844873 -0.068191648 0.046468649
0.067185163 -0.065101348 0.042689484
0.018721083 -0.13289438 0.0069502559
0.085481852 -0.040397737 0.061369251
-0.0021509824 0.070110232 0.1610747
0.10902681 0.033529676 0.15258296
0.10115334 -0.082652241 0.050724544
0.13001081 0.012980602 0.14386781
0.081241101 0.047881275 0.17071593
-0.10371228 -0.12981825 0.0042785141
-0.13708991 -0.033577275 0.085541949
0.15189886 -0.039343242 0.069492213
-0.10763577 -0.15807398 0.006608197
-0.042858601 -0.17167021 -0.010249918
0.13310255 -0.0042749746 0.13566099
-0.050646625 0.05880237 0.17442088
0.014000614 -0.090408906 0.026661733
0.12669939 0.023332356 0.12689087
-0.07082621 -0.16813225 -0.0018318229
0.0094079943 -0.13230231 0.0072765243
0.13570578 0.021370994 0.13434108
-0.14436159 -0.059366658 0.088171847
0.023356933 0.054924194 0.1843842
0.093461968 0.042644404 0.1621892
0.04178597 0.036650665 0.1700017
0.055309944 0.056420591 0.1746168
0.12743738 -0.067276947 0.069769464
-0.15825269 -0.054928739 0.060020793
-0.12997039 -0.033790812 0.090057857
-0.0048442446 -0.10993791 0.019600511
-0.14362797 -0.050222252 0.086305432
0.1132465 -0.069447771 0.047659021
0.15314738 -0.10979162 0.021940211
0.014929995 -0.095024027 0.019629143
0.15134138 -0.037038118 0.10816944
-0.11726366 -0.0142911 0.10563347
-0.12858094 -0.03496059 0.10084976
-0.16964933 -0.047725677 0.078064561
-0.026911911 -0.15894288 -0.015834933
0.021996642 -0.14866993 -0.0029973739
0.039484549 -0.045610417 0.064406529
-0.031189432 -0.18898973 -0.031178255
0.11429287 -0.15876879 -0.00086720538
-0.070001341 -0.050882194 0.068056785
0.067843728 0.038899403 0.17188857
-0.12250359 -0.11272787 0.014380587
0.16222931 -0.037095618 0.097976647
-0.16295218 -0.033519555 0.082600959
0.11306677 0.0048184055 0.12772414
0.11581223 -0.063303575 0.069946386
-0.11583492 -0.068511747 0.065791525
-0.11923629 0.0029288004 0.14170556
-0.1637378 -0.08417248 0.044605624
-0.085440621 -0.070840687 0.041415635
0.12870482 -0.10541158 0.020993369
0.11698522 -0.1299324 0.027562464
0.14572927 -0.044509806 0.067305379
0.061862476 -0.1576997 -0.030692082
0.12380517 -0.05916512 0.060097978
0.1185772 0.010215588 0.14781998
0.13869758 -0.056687888 0.084967442
-0.16232312 -0.02402987 0.095898114
-0.089343958 -0.14839405 -0.021622187
-0.12635869 -0.14184532 0.020225687
-0.030182179 -0.022662031 0.081295274
-0.13800585 -0.10147148 0.017128492
-0.038902108 0.062907331 0.1751022
0.018465802 -0.060407627 0.059694033
0.10427815 -0.12800287 0.0071239988
0.15675488 -0.080467299 0.040901277
0.16396153 -0.073218666 0.066558838
-0.11892094 -0.11899611 0.0065400661
-0.11189814 -0.1604332 -0.0067561446
0.008794426 -0.06464754 0.056136288
-0.075375997 -0.062923595 0.05982909
-0.052337125 -0.041214574 0.06415718
-0.10645505 -0.1519518 0.011745263
-0.11677161 -0.12654902 -0.0047354735
-0.073482938 -0.17465904 -0.022995716
0.13533971 -0.10356116 0.044094995
-0.073947318 0.035283372 0.1440504
0.0075074374 0.0693845 0.17972945
0.119689 0.027113473 0.12830505
-0.10116104 0.012295358 0.1364926
-0.10021082 -0.15051289 -0.018692201
-0.04724697 -0.17856587 -0.010586721
-0.065202773 0.062183391 0.16704082
0.017770642 -0.1152795 0.0070215752
-0.15740101 -0.10085656 0.027277552
0.024983261 -0.1751996 -0.039284885
-0.15773432 -0.038192324 0.071205601
-0.07352791 -0.16472161 -0.028088924
0.017915778 -0.11193778 5.2066225e-05
-0.00083809753 -0.13516706 0.0056978944
-0.002814441 0.072191849 0.16982086
-0.15478131 -0.021563178 0.08998815
-0.05162375 -0.17305259 -0.035424571
-0.01477817 -0.13200098 -0.008499003
0.084140129 0.039840553 0.17217901
-0.014061661 -0.077595904 0.028318292
-0.10160169 -0.074684441 0.038832232
0.032820139 0.057638653 0.18007223
-0.038575303 -0.17205469 -0.039109457
0.15737289 -0.045648172 0.065699905
-0.11307647 0.031988014 0.13307735
0.0016296858 -0.15167482 -0.0033987744
-0.028599335 -0.042316988 0.074873887
0.12896031 -0.08827126 0.036712881
0.07812342 0.056605775 0.15536359
0.032231174 -0.17131905 -0.012530749
-0.10383648 0.029744018 0.12982823
0.14638638 -0.098670162 0.021327958
-0.0073831999 -0.049361192 0.068963066
-0.14346592 -0.058991961 0.055145394
0.0090824012 0.042864691 0.1738368
-0.10114672 0.018545048 0.12888794
-0.13638541 -0.10607027 0.046503335
-0.081441835 0.02947419 0.16397993
-0.0053740377 -0.19131926 -0.025551554
0.12450326 -0.14717691 0.0072959918
0.032058835 -0.054855816 0.059528075
0.061412029 0.042276271 0.17472205
0.091472648 -0.15564805 0.0082237916
-0.015063207 -0.15217201 -0.0036727481
0.081704423 -0.068199411 0.039951924
0.13312456 -0.041164476 0.10273819
0.15753724 -0.099752881 0.028179687
-0.13133241 0.00070820266 0.10616533
-0.039141241 -0.040026765 0.067313679
0.096839324 -0.14141048 0.0046353773
-0.12612092 0.013673721 0.11620617
0.016579747 -0.10517962 0.0099829677
-0.094428763 0.045812849 0.14678369
0.12883011 -0.079116553 0.060677093
0.0058118263 -0.081450187 0.035298776
0.032695729 -0.040904082 0.064834237
-0.10438044 0.037804883 0.13780563
-0.0052783452 -0.037516687 0.07890176
-0.053884335 -0.15580755 -0.018219914
-0.085355394 -0.16509214 0.00071918912
-0.13175416 -0.10704717 0.038812194
-0.097290047 -0.049462218 0.056261666
-0.058825865 -0.15792252 -0.0091606518
0.0082421266 -0.047163494 0.070807151
-0.04991452 -0.061543882 0.046100881
-0.038347039 -0.060313892 0.052372709
0.03852734 -0.18866925 -0.031952351
0.11733946 0.031873476 0.1458059
0.13742769 -0.085467272 0.063772269
0.0091653159 -0.1753353 -0.010370751
0.046124216 0.03856118 0.161309
0.094118923 0.036945269 0.13547175
0.011022407 -0.025869396 0.088674977
-0.02092943 0.060504075 0.15633813
-0.15185034 -0.07570032 0.075727865
0.16228098 -0.029518347 0.09676268
-0.12396762 0.0067973547 0.11300308
-0.055062406 -0.18188757 -0.029687556
0.12639846 -0.0079612322 0.10540381
-0.00029619012 0.054907005 0.1589433
0.12068426 -0.11444917 0.013256525
0.15349008 -0.049299173 0.097881176
-0.1413821 -0.043144047 0.073061556
0.090933464 0.027975094 0.16272192
0.11782952 -0.0045192535 0.11756959
-0.11555058 -0.15840396 0.0055486802
-0.05686399 -0.17653942 -0.0088862767
0.050242253 0.062261023 0.15840007
0.055547237 -0.044924647 0.068698741
-0.11242747 -0.048393931 0.069767572
-0.14467803 0.0070897974 0.11882705
-0.014748635 -0.092340522 0.018604551
0.13882521 -0.030171471 0.1139312
-0.095344134 -0.13812549 -0.0015888494
-0.018170623 -0.11493941 0.0008114489
0.071670838 -0.15792391 -0.027855897
0.074248739 -0.16724452 -0.0010869507
-0.0025369807 -0.12156325 0.013194322
-0.11057048 0.036933117 0.14306928
-0.16239986 -0.069301046 0.081097648
-0.11768821 -0.059962053 0.056867342
0.10841256 -0.13006499 -0.0020947217
-0.12671307 -0.060390372 0.075077042
-0.12195501 -0.13570921 0.025374483
0.15988362 -0.087800346 0.065004595
0.01331729 0.044926554 0.16608346
0.073980331 -0.0421189 0.064098455
-0.14779103 -0.0079664197 0.10109306
0.011347386 -0.18993142 -0.028903669
-0.12435755 -0.067079745 0.054222748
0.048948478 -0.056164864 0.058419406
-0.030162802 -0.19021769 -0.020363633
0.11698496 0.0032915345 0.12052172
-0.071744286 -0.15610234 -0.0028239458
-0.049257886 -0.05078185 0.062792838
0.13117631 -0.050344344 0.07325992
-0.13864923 -0.063862905 0.079913057
-0.095893711 -0.14061365 -0.0097832056
0.03205654 -0.025162475 0.078482471
-0.072215334 -0.15649019 -0.027537979
0.11808305 -0.11986316 0.0058681718
0.077301115 0.0541793 0.14795268
0.015865067 -0.13956277 0.0032756196
0.064181432 0.037713014 0.1521088
-0.031945299 0.06781894 0.17395605
-0.019926999 -0.16056253 -0.029269915
-0.12656341 -0.060808431 0.060002234
0.038375445 -0.16599725 -0.016139412
-0.02436213 0.040967442 0.16897883
0.13282029 -0.030235218 0.086801566
-0.030724127 -0.17497946 -0.010350037
-0.11407762 -0.15406978 -0.014730539
-0.11972965 -0.016208036 0.11629757
-0.15712124 -0.10824756 0.045026951
0.085469566 -0.069653861 0.057060208
0.025241477 0.039629556 0.17250125
-0.019059418 -0.043332241 0.074021943
0.13136406 -0.14054658 0.018767856
-0.13146313 -0.098608218 0.0459853
-0.06375277 -0.16227156 -0.0037863303
0.12877284 0.0038700297 0.14249545
-0.15442759 -0.04768002 0.099239938
-0.12885189 -0.020045895 0.12242756
-0.11844085 0.032901112 0.14204369
-0.072660521 -0.073854759 0.050403524
0.0065887258 -0.11961822 0.014266142
-0.037647787 -0.061882511 0.042826001
0.066684715 0.048771143 0.14887084
-0.065674387 -0.17579389 -0.0082606329
0.014016551 0.057518706 0.15713151
0.11406401 -0.147073 -0.012596072
0.1431976 -0.092620336 0.061530378
-0.16122463 -0.033530451 0.099478342
0.03366657 -0.19222935 -0.023353288
0.07092835 -0.15802637 -0.0021563352
-0.024789197 -0.066548474 0.047911782
0.1022053 -0.16432972 -0.010009991
-0.065230131 -0.15367745 -0.022615099
-0.16420802 -0.039348677 0.094391331
-0.0092562279 -0.1548546 -0.020573245
-0.013889336 -0.18213131 -0.039671544
0.016449003 -0.18079346 -0.012455938
-0.048327919 0.056018695 0.15204537
-0.090842873 -0.1505685 0.0048770076
-0.035806645 -0.047130827 0.066504076
0.067367822 -0.064095765 0.056833666
0.041899189 -0.16676633 -0.037544988
0.11129378 -0.15328212 0.010629041
-0.010836913 -0.16799983 -0.009943747
-0.13120994 -0.020244207 0.094639607
0.047257427 -0.17406647 -0.0068113324
-0.020302592 -0.071491718 0.039010208
-0.13656218 -0.13351998 0.017029431
-0.16215773 -0.096248947 0.034773465
-0.094086289 -0.060626227 0.066483259
-0.057706535 -0.066418692 0.048379865
-0.024408756 -0.1650922 -0.0097744903
-0.078108504 -0.057123672 0.065162949
0.047028091 0.04922545 0.15175734
-0.14719562 -0.049857967 0.097412296
-0.021448499 -0.14078501 -0.010163285
0.088444963 -0.049238622 0.052664295
0.11301344 0.018989014 0.12373784
-0.11495319 -0.082886159 0.054089747
-0.15358016 -0.087309211 0.033264995
-0.036646713 0.05661571 0.17965709
0.0006009083 -0.17870104 -0.039480198
-0.14851962 -0.044419441 0.066271469
-0.058588646 -0.16866577 -0.0029962556
-0.14404064 -0.06902454 0.081153467
-0.0022073025 0.056925464 0.18701418
0.16708016 -0.039523069 0.078935809
0.12141906 -0.023125371 0.095546432
0.026740648 0.068349414 0.16874547
-0.0092895199 -0.1744175 -0.039241258
0.010327532 -0.12151216 -0.0043239449
0.026963672 -0.18063577 -0.012323621
0.036469135 0.062815711 0.17582859
0.12792414 0.010348933 0.11370863
-0.043028153 -0.1825984 -0.039015286
0.13079011 -0.020509852 0.093298204
-0.13101007 -0.099087417 0.030555192
-0.041205149 -0.05382482 0.058289096
-0.14979672 -0.10117818 0.054349374
-0.088635229 0.036755145 0.1696482
0.11978851 -0.069968246 0.065650575
0.040843926 -0.035902668 0.06539201
0.1411121 -0.045308884 0.080593236
0.057065714 -0.16486517 -0.0060910564
-0.13222066 -0.013116384 0.098273747
0.0046235854 -0.12606877 0.010711545
0.15594622 -0.016824685 0.10751434
-0.01743653 -0.066511661 0.051143419
-0.13170221 -0.066694193 0.071706757
0.10634491 -0.13696893 -0.01307766
0.16592625 -0.056868803 0.065598547
0.16681603 -0.056552112 0.079257406
0.12002931 -0.14960542 0.01371421
0.086358458 0.051601235 0.15221633
0.073791169 0.035436768 0.144143
0.0075148121 -0.020664172 0.093042739
-0.046703871 0.047471475 0.15168361
-0.1290037 0.024972012 0.13402072
-0.095122851 0.042206571 0.13811152
0.12493594 -0.074289329 0.048771042
-0.024650009 -0.051664896 0.067030042
0.12830423 -0.026688645 0.11685374
0.12825981 -0.013386654 0.12801543
-0.076844729 0.051783372 0.14590517
-0.16566533 -0.058775552 0.082291208
-0.14865881 -0.02326115 0.11972972
0.018554555 -0.046114177 0.071687631
0.14553519 -0.12306929 0.022922941
-0.11122274 0.033034895 0.15083329
-0.16824418 -0.044850115 0.087161727
0.12204531 0.011899707 0.11841236
-0.022116415 -0.059363429 0.060570221
0.00085332221 0.051165592 0.18218106
0.046568491 -0.15861249 -0.020239016
0.13723107 0.01283404 0.13731891
0.030729072 -0.16575073 -0.037174717
0.1033162 0.020296965 0.12825918
-0.12674592 0.022492914 0.12471692
0.13580862 -0.041845955 0.092605717
-0.13142137 -0.051735535 0.074528955
0.084208243 0.0254997 0.14060466
0.13083413 -0.094029911 0.051889043
0.078236274 -0.16164026 -0.026362048
-0.064293884 -0.17866988 -0.025244566
0.096070148 -0.14164746 -0.01347185
0.00066251593 -0.023144342 0.09096159
0.15837033 -0.02424212 0.10377541
0.00021000589 -0.079594545 0.029877959
-0.012675205 0.061306246 0.18335225
0.025455743 -0.18759555 -0.018163444
0.058363225 0.062471133 0.16410643
0.099539876 0.044161368 0.1486852
-0.10809126 0.0082574235 0.13038966
0.092309669 -0.060798496 0.065891318
0.054063782 -0.15492712 -0.015438116
-0.11742616 0.0094753467 0.14719886
-0.093750574 -0.16691723 -0.00081217516
0.13669255 -0.07319323 0.045039959
0.16176318 -0.03383702 0.080767319
-0.0021001801 -0.18619719 -0.016990118
0.12120997 -0.027500365 0.11339667
0.015571451 -0.10252278 0.022547768
0.094601832 -0.13930042 -0.0040333141
0.0055080606 0.061293431 0.18533798
0.11718475 -0.12036131 0.02416781
-0.13987763 -0.12881318 0.03116088
-0.12454866 -0.031472955 0.10679211
-0.14806239 -0.020499695 0.084197707
0.040514726 -0.056134772 0.047926467
0.043055914 -0.17779244 -0.038458373
-0.0090843122 -0.019000353 0.091919959
0.032466561 -0.048111729 0.068914987
-0.12355732 -0.14817892 0.0060865288
-0.072801337 -0.14875799 -0.013718549
0.1513229 -0.11730304 0.031706676
0.079894625 -0.049601402 0.071631193
0.046696417 -0.042290848 0.06577941
-0.11230984 -0.074955218 0.059739761
-0.084799685 -0.070413165 0.056278199
-0.13845336 -0.094958551 0.029367536
-0.0018948487 -0.059583396 0.060385644
0.13975199 0.00013442995 0.1372714
0.11627786 0.032176688 0.13750251
0.137941 -0.13117184 0.014169128
0.056396034 0.059833359 0.15234807
0.15207559 -0.019632265 0.089566894
-0.05469057 0.062633321 0.16254972
-0.069581062 0.03095811 0.16345181
-0.01550434 0.047021709 0.17870392
0.076671168 0.044570651 0.1761169
-0.028699568 -0.047262389 0.060306005
-0.058825523 0.04805661 0.17887482
0.070234746 0.058581837 0.15561603
-0.12171918 -0.016901733 0.099292859
0.12272001 -0.14756387 -0.0025904232
0.10079516 0.010608885 0.14293787
-0.05851575 -0.17630327 -0.033782627
0.033849832 -0.059275251 0.051007848
-0.016874915 0.06879814 0.16462946
0.058386192 0.048186194 0.15003514
-0.02107843 0.058393411 0.1828496
-0.048351485 0.05251484 0.17898419
-0.137437 -0.071468353 0.07352525
0.049863957 -0.16573948 -0.009705985
0.094803147 -0.15204886 -0.020440539
-0.098445222 0.03210507 0.16303247
-0.048526671 -0.15895554 -0.023388738
0.11822117 -0.089345433 0.049778633
0.16674036 -0.065543912 0.063552484
0.15749957 -0.070793957 0.048307288
-0.096883759 -0.045237925 0.066687636
-0.06843143 0.05256208 0.148884
-0.015641488 -0.16890109 -0.038933542
-0.10490499 -0.043790765 0.063886873
-0.092360586 -0.041106436 0.061867829
-0.012421545 -0.16023748 -0.008117253
0.026328526 -0.15906838 -0.015126902
0.12383365 0.0016196689 0.11266791
0.11839245 -0.11219395 0.020552091
0.0074767251 -0.12858653 -0.0071398723
0.1173467 -0.13116518 -0.0057962216
0.074156977 0.030860901 0.15106127
-0.14354536 -0.12545647 0.021912856
0.022769334 -0.027512604 0.087296158
0.07681182 -0.071199611 0.053595901
-0.14360471 0.008310358 0.12842584
0.076505855 -0.17749405 -0.011060993
0.046449333 -0.16247234 -0.03317073
-0.16275579 -0.071042433 0.052861642
-0.14308946 -0.10528497 0.050903425
0.14752369 -0.076216958 0.075294442
0.078058697 -0.16189575 0.0034011782
0.041152153 0.050934322 0.18195847
-0.0072809141 -0.12680255 0.010307181
-0.14963278 -0.11953033 0.031868521
-0.011958105 0.060015328 0.15760684
-0.10930651 -0.086802058 0.049343027
-0.13930564 0.013905964 0.12219914
0.16185302 -0.040634576 0.073229134
-0.073590912 0.055365454 0.17022632
-0.026307788 -0.16770484 -0.038866814
0.086461172 0.032754183 0.16673204
0.15253142 -0.099656314 0.05562656
-0.088231727 -0.045404557 0.067358106
-0.16404718 -0.069827162 0.07221023
-0.13126601 -0.077402182 0.063853137
0.051517572 0.040497027 0.15314269
-0.024479203 -0.18499132 -0.039831083
0.072443515 -0.050826173 0.068733923
-0.044513389 0.065116942 0.16641642
0.13032871 -0.10117976 0.027279967
0.12831768 -0.11854578 0.038571462
-0.01294227 -0.18381685 -0.014992824
0.095001295 -0.047414031 0.056870073
-0.028688695 0.060883794 0.17918982
-0.05657449 0.060184769 0.15385693
-0.11888303 -0.062293921 0.071540281
-0.076908693 0.058990438 0.16124456
0.12698331 -0.034788128 0.11005747
0.091521494 -0.075527802 0.053930361
0.16332433 -0.079054356 0.059922028
0.11569286 -0.061032914 0.055194817
-0.11065807 -0.064097427 0.0506767
0.13587387 -0.019177901 0.12315593
-0.069862522 0.058640964 0.15562287
-0.030867828 0.062983714 0.15506811
-0.11897568 -0.15214445 -0.0039627785
0.055505969 -0.18321849 -0.014490603
-0.066447198 -0.0594007 0.060341019
-0.087591097 0.037825987 0.1385207
0.0068247337 -0.15943654 -0.0076759015
0.028369838 -0.030437896 0.083005734
-0.1395324 0.0023655859 0.10606924
-0.092985556 0.015422665 0.14899559
0.12315185 -0.11507375 0.030235736
-0.10039365 0.021805927 0.15754546
0.09908244 0.032128293 0.16242479
-0.014260148 -0.070300616 0.044207908
0.06953267 -0.17578599 -0.02555179
0.050547805 -0.1877228 -0.018270127
0.08187706 0.054521911 0.16672757
0.085433386 -0.056986462 0.045401949
0.12696433 -0.031899258 0.097043842
0.037114728 0.05440272 0.15355906
0.026695075 0.042746771 0.16310732
0.091179207 -0.068286061 0.039137151
0.12041147 -0.076941073 0.060244884
0.15012972 -0.049453728 0.061075363
-0.1343098 -0.081333503 0.03865302
0.090177447 -0.16721028 -0.0010581053
0.016521476 0.064748675 0.18013461
0.12903462 0.026023297 0.13684866
-0.065551609 -0.1726962 -0.031320706
-0.128811 -0.14043453 0.0010910247
0.11333238 -0.1388943 0.022701785
0.079495758 -0.063760258 0.060225897
-0.11854432 0.00028998914 0.12726812
-0.13679925 -0.0425767 0.090736352
-0.017127536 -0.019580871 0.087366536
-0.10218394 -0.14215131 -0.017167876
0.14002055 -0.0072707371 0.13314722
0.16584767 -0.051869299 0.09293852
0.072049893 0.029547771 0.16404174
0.13282442 -0.079638422 0.04077474
0.085707463 -0.14227095 -0.0049863919
0.13794047 -0.046244554 0.099154033
0.014326504 -0.16854647 -0.0099755675
0.12826118 -0.12753111 0.0017801904
0.093179278 -0.057672303 0.048178766
0.018820306 -0.11892439 -0.0031866806
0.13447122 -0.12554508 0.0060660406
0.046953082 -0.060626425 0.046319004
-0.12300903 -0.11725643 0.030861417
-0.078261383 -0.06828326 0.041566443
-0.013727428 0.069400474 0.17800353
-0.11474087 -0.12323143 0.021936003
0.0037557927 -0.089402199 0.030916793
0.11185803 0.015916631 0.1526037
0.024591867 -0.15673387 -0.023436364
-0.011599082 -0.18813384 -0.03324559
-0.14674734 0.00062138413 0.12329601
0.085511036 -0.15616076 -0.023617992
-0.0036041124 -0.16082817 -0.0084427558
-0.011257777 -0.042302556 0.074885949
0.083221249 -0.056801174 0.066740863
-0.10202426 -0.14081044 0.011421164
0.15174314 -0.017147396 0.11593033
0.12032416 -0.012116816 0.12312888
0.014045281 -0.041206364 0.075805761
0.065042585 0.057355009 0.17134263
0.076083973 -0.17477411 -0.018977445
-0.059496854 0.046366833 0.14974843
-0.033493862 -0.18535194 -0.0398512
-0.015985338 0.0476714 0.15762778
0.10094678 -0.13484663 -0.0021615331
-0.0091165537 -0.11487673 -0.0016827343
-0.0092885345 0.047789771 0.1615254
-0.1123256 -0.076724134 0.041647416
0.068582579 0.046160158 0.17735946
-0.15271412 -0.026960175 0.079891391
0.13846356 0.0095836036 0.11508298
-0.16250591 -0.079400323 0.064321727
-0.10555686 -0.080611303 0.053484958
0.15240875 -0.08568415 0.033351343
-0.12251967 -0.01610144 0.12573732
-0.10516693 -0.13245665 -0.0027237108
0.14215793 -0.031039355 0.080841944
0.11309955 -0.053066626 0.075910933
0.041883454 -0.18447432 -0.015544444
-0.15359378 -0.1136237 0.027752457
0.025123954 -0.16164276 -0.030915717
0.0029895189 -0.14430214 0.00066396216
-0.10918792 -0.14826693 -0.015818337
0.08151798 -0.14792919 -0.0020084686
-0.016024634 -0.10281736 0.014933322
-0.11947469 -0.13366394 -0.0053050579
0.012514741 -0.16296667 -0.032932885
-0.067201711 0.038413413 0.17148076
0.10300952 0.011240546 0.13475853
-0.11373325 0.019427313 0.15550704
-0.031700697 -0.16809408 -0.014305091
-0.14183922 -0.11784928 0.040360697
0.14682266 -0.087463386 0.065857597
0.019416058 -0.16491552 -0.035902184
0.13327751 -0.11398425 0.0088867955
0.042154454 -0.18532474 -0.038739629
-0.060698006 0.041666098 0.17421003
-0.13391736 -0.060452275 0.057661124
-0.12158322 -0.02921846 0.11363171
-0.033682439 0.039529614 0.16670527
0.080770776 0.028849844 0.16345601
-0.051605374 0.034995936 0.166711
0.16977368 -0.049077187 0.074810699
-0.13507785 -0.13685018 0.024341878
0.11609386 -0.053557988 0.061132535
-0.11217856 -0.13100252 0.021436803
-0.089607209 0.026986606 0.16189258
-0.11007699 0.013015906 0.12390336
-0.12051922 0.028585164 0.13319008
0.13785788 -0.064420789 0.052491326
-0.0034189748 -0.1658352 -0.037303425
0.16175334 -0.05855719 0.090112887
0.15891549 -0.10668217 0.036918916
-0.12588046 -0.087215558 0.053448878
-0.019454308 -0.12811178 0.0012420117
0.087905943 0.048658554 0.16420281
-0.038809471 -0.1647744 -0.016614707
-0.015719792 -0.17776166 -0.010511992
-0.12105966 -0.14600834 -0.008133145
0.12279846 -0.10737858 0.02680956
0.07550317 -0.1513402 -0.025225563
0.090063572 0.028538212 0.13566317
-0.079186976 0.037084982 0.17036605
0.021609629 -0.14244942 -0.01031216
-0.0018324375 -0.11267552 -0.00080654916
-0.12445828 -0.082384385 0.041659884
0.017192589 -0.17347379 -0.039188616
0.089750692 -0.046592113 0.068786696
-0.11977554 -0.076134793 0.060721509
-0.045899622 -0.1595896 -0.015591634
0.11179335 0.030075369 0.12647472
-0.12744394 -0.09010195 0.039673511
0.11144504 -0.046575397 0.06754148
-0.14748138 -0.1178144 0.016127249
-0.079504907 -0.05035824 0.070923418
0.085813515 0.021259377 0.14990349
0.10045037 0.038519539 0.15789278
0.15131614 -0.043369338 0.1028569
-0.13465931 -0.041986391 0.098636933
0.14498694 -0.0099605434 0.094979592
-0.13495031 -0.046147816 0.070159651
-0.099205025 -0.065580793 0.044644322
0.081976488 0.03928709 0.14126684
0.027994828 -0.047109019 0.060250282
0.018037761 -0.054480195 0.064667724
0.023956221 -0.019029642 0.082223557
-0.16209576 -0.086679026 0.053718422
0.040390179 -0.17801718 -0.01012639
-0.12011082 -6.2085445e-07 0.1117921
0.015880359 -0.032605078 0.083023079
0.12651533 -0.12498455 0.034373503
-0.04330105 0.041597087 0.15556912
0.14158863 -0.1288525 0.026497595
-0.15360059 -0.09368027 0.028847821
0.14052619 -0.077280872 0.072257318
0.067967512 -0.15155315 -0.018241782
-0.14991149 -0.076241508 0.037663262
-0.050878868 -0.16725357 -0.0082432581
0.13042989 -0.067649297 0.052559342
0.12277488 -0.05270252 0.064643875
-0.11330389 -0.12379012 0.0041385596
0.14287329 -0.12487292 0.0144996
0.05782818 0.049557425 0.1782093
-0.11009184 0.0049497043 0.14340129
0.10205669 0.036332428 0.13185762
-0.024206273 0.047685467 0.15496588
0.13065025 -0.13998646 0.011116556
-0.14064081 -0.048827179 0.065455966
-0.15864554 -0.018556695 0.10241791
0.065292113 -0.16483545 -0.0013935472
-0.13735591 -0.041043743 0.082363255
-0.076844454 0.04430243 0.14448549
-0.076151684 -0.16224734 0.0031061515
-0.00036431363 -0.047085017 0.070873
0.090765372 -0.054048602 0.070881695
0.12738228 -0.091785267 0.043958858
-0.0052839154 -0.14360861 0.0010461406
-0.11743136 0.010650066 0.12021362
0.07015229 -0.15173319 -0.0062918123
-0.15208045 -0.082241163 0.070239425
-0.12191625 0.018227339 0.148615
-0.1510108 -0.055509176 0.092670307
0.033442717 -0.069534421 0.036483075
0.1594113 -0.094804645 0.055270456
-0.15956233 -0.091971047 0.05952394
-0.086663976 -0.047244031 0.053437732
0.016896768 0.047252145 0.17889735
0.10621677 0.02463218 0.15972303
-0.023437411 -0.15681209 -0.023555718
-0.079258367 -0.17012186 -0.027007053
0.01407732 0.072021514 0.17588986
0.063669734 -0.047175813 0.06938757
-0.011602134 -0.075324282 0.038674477
-0.138037 0.0084159058 0.11290842
-0.00020801592 0.045144431 0.17375518
-0.070507392 0.033534545 0.15253551
-0.094104432 -0.070454732 0.038707405
0.15831898 -0.092591323 0.033870369
-0.017098445 -0.10714813 0.0053591761
0.082737453 -0.17110363 -0.004325008
-0.15317303 -0.059042905 0.05257732
-0.0068768309 -0.079991572 0.026151534
-0.10889604 0.011768351 0.14912291
-0.047859248 -0.060148954 0.054954972
-0.062905423 -0.04646584 0.069754198
0.062652223 0.032693084 0.16549037
0.040471565 -0.16270639 -0.027851064
0.093362048 0.049631722 0.15869823
0.011800103 -0.068734184 0.048692219
0.010062635 -0.15615001 -0.022546859
-0.04410585 -0.052073535 0.049728394
0.038168225 0.046212737 0.15283343
-0.15468478 -0.069156237 0.08121907
0.12346018 -0.14383763 0.018553955
-0.0073604612 -0.12883809 -0.0072400253
0.055021111 -0.17845523 -0.035042718
-0.024991861 0.045933045 0.1777904
0.11710001 -0.15350713 -0.0093422579
0.022415258 -0.073238716 0.034279369
-0.12403715 -0.0062225806 0.10449982
0.033021521 0.048423693 0.17988037
0.053430222 -0.15979148 -0.031241072
0.14756128 -0.1140622 0.017326882
0.081210405 0.023190603 0.1563907
0.10100722 0.027870271 0.13071406
-0.15850587 -0.073854849 0.047072444
0.15247476 -0.092068657 0.02896587
0.082908981 -0.17077528 -0.020051049
-0.018787796 -0.12810326 0.0095904274
0.12585522 -0.085545667 0.054778561
-0.085259147 -0.17232952 -0.012552105
-0.1646703 -0.029713629 0.090027027
-0.16481027 -0.079224072 0.050705779
0.037553366 -0.029067626 0.070572548
0.032256421 0.06049262 0.15469047
-0.12922598 -0.053296685 0.0660045
-0.15411042 -0.10758411 0.023177357
-0.042171236 -0.18759497 -0.032625325
-0.1059512 -0.071066603 0.061205767
0.14284375 -0.10638654 0.049979169
0.090752423 -0.075456344 0.044480421
-0.030668799 -0.062161461 0.050450999
0.16202587 -0.085626289 0.055959977
-0.10844587 -0.070596799 0.044718567
-0.017070115 -0.11185262 0.013036
-0.016260423 -0.12292152 -0.0048849438
-0.15987575 -0.056345884 0.091968328
-0.0018171705 0.048808847 0.16367842
0.12224017 -0.027800385 0.10395848
0.028881919 -0.064773947 0.048689723
-0.081846826 0.028084543 0.13920315
-0.12737289 -0.011458328 0.12963326
0.046169005 -0.04626717 0.055839673
0.10200084 -0.16153079 -0.017830471
0.092390522 -0.14454599 -0.019512657
0.042023156 -0.05809439 0.055095054
0.098803774 -0.050934259 0.073973931
0.12615238 -0.059666049 0.075513959
-0.009896744 0.042804919 0.17348285
-0.049022943 -0.18555571 -0.016451776
0.048363406 -0.04975513 0.06338533
0.11371524 -0.11729727 0.016368438
-0.1033874 -0.13718735 -0.0097960103
0.057708558 0.037350647 0.15705615
0.14112519 -0.047461994 0.088678643
-0.025173957 -0.036314264 0.079910718
0.15426114 -0.083648406 0.069058798
-0.1604661 -0.097973205 0.043270852
-0.0002074066 -0.029015033 0.086035483
0.027089169 -0.037731815 0.07872127
0.15435335 -0.0078401929 0.10899705
-0.12349904 -0.10740627 0.027753919
0.13238969 -0.0033804493 0.10392997
0.021489121 0.056163691 0.15595151
-0.13089395 -0.070790179 0.04954252
-0.16134754 -0.048089728 0.067572095
-0.12789047 -0.12790677 0.031921525
0.16349743 -0.082414709 0.045623656
0.04991908 0.040866282 0.17353903
0.11424731 0.025872162 0.15171978
-0.0058081173 -0.16034779 -0.028942754
0.16394377 -0.049367074 0.069034189
0.14304684 0.0081015592 0.12954296
0.0059698117 -0.11071134 -2.4707935e-05
0.10362329 0.014866653 0.15172268
0.16525844 -0.065396175 0.072778031
-0.012529627 -0.097940326 0.026211828
-0.1109737 -0.13240917 -0.0098863421
0.13340409 -0.10681235 0.012368562
0.11979278 -0.15302669 0.0061233388
-0.094380148 -0.14354871 -0.01816158
0.018473282 -0.15961798 -0.027830722
-0.11554505 0.025261428 0.15085356
0.090678416 0.043903127 0.13830836
0.13515529 -0.036462877 0.10865211
0.10132614 -0.045854945 0.06720376
-0.13855107 -0.11282539 0.012358109
0.10815017 0.0063752923 0.14459763
0.1099107 -0.14454274 0.017962169
-0.010530613 -0.11599246 0.016264129
-0.088436387 -0.061123248 0.043487143
-0.13510117 -0.093519218 0.056062546
0.0027893982 -0.034555756 0.081386268
-0.041438289 0.048016101 0.17953828
-0.021066349 -0.19193745 -0.02405832
-0.15704826 -0.061844446 0.087354437
0.064332828 0.058238622 0.1507048
-0.099756435 -0.066981055 0.062871195
-0.1222954 -0.023633882 0.11941696
-0.11363559 -0.11740545 0.016270256
0.0090650991 0.048953831 0.15877637
0.03251918 0.039575338 0.16731238
-0.099779077 -0.15615252 0.0082204072
0.08641316 -0.16407201 -0.024252364
-0.0063817375 -0.06769567 0.042878255
0.049155079 -0.16967118 -0.035757605
-0.031708132 -0.072394356 0.032145735
0.10708503 -0.15221044 -0.016875681
-0.081593677 -0.14707488 -0.017014833
0.14426991 -0.099943355 0.05538566
-0.15573147 -0.0113403 0.10716192
-0.030477101 -0.055292547 0.060710274
-0.068407997 0.039369967 0.14726697
-0.032530177 0.043176815 0.15839915
-0.016034847 -0.03689687 0.079421848
0.0023132074 -0.15783632 -0.025116242
0.024974667 -0.1649985 -0.0097690364
0.020054011 -0.12964752 -0.0058784843
0.13651715 -0.13500875 0.024502173
-0.14269245 -0.081063159 0.071227945
-0.09583579 -0.076668151 0.043686114
-0.010017903 -0.082019471 0.034985069
0.010238869 0.053911988 0.18448561
-0.030765932 0.051647734 0.18258558
-0.093964636 -0.16029581 0.0047437665
0.070146188 -0.1686354 -0.029515931
-0.12645236 -0.026600296 0.092540197
-0.087447226 0.022604564 0.14105333
-0.081663691 0.054949746 0.16671516
-0.16423668 -0.042806398 0.073854893
-0.092666432 -0.16621542 -0.018490328
0.0044839932 0.046520054 0.16766691
-0.14197128 -0.0027894301 0.13330553
0.034884356 0.04187692 0.16013576
-0.064655311 -0.15148693 -0.014619598
0.13097259 -0.13067922 0.029595139
-0.068522938 -0.15107459 -0.0076187714
0.12974887 -0.13955313 0.0028698163
-0.12143864 -0.0069382647 0.13342604
0.14537555 -0.018142531 0.12402474
-0.15694088 -0.082740292 0.039475519
0.097736768 -0.068159714 0.061413243
-0.14573026 -0.0023572126 0.10664123
-0.150278 -0.042683799 0.10343223
0.085885763 0.054470867 0.15921444
0.019434651 -0.18932025 -0.030379927
-0.028740956 0.066590697 0.16288175
0.083619632 -0.17325366 -0.012374675
0.15288778 -0.091912605 0.062124308
0.043560214 -0.18963622 -0.025144782
-0.13631573 -0.13128363 0.0054005128
0.13137852 -0.061095793 0.058094632
0.00093211129 0.062968865 0.15941288
-0.085208908 -0.062236518 0.062910773
-0.022490054 -0.1890309 -0.03107884
-0.013363698 0.053757377 0.18435581
-0.03041427 -0.17514284 -0.039281718
0.010534529 -0.14950898 -0.0022052799
-0.12861024 -0.11501023 0.0058008814
-0.13713367 -0.037729546 0.10758937
0.15925965 -0.021146365 0.09585648
-0.0059980336 -0.17902023 -0.010968043
0.15084016 -0.0096654147 0.11663111
0.15361921 -0.055988964 0.092267759
-0.13279119 0.016706258 0.11852372
0.14257671 -0.10564115 0.016943149
-0.14352068 -0.067085065 0.047817387
0.15443234 -0.069050707 0.081307709
0.13505888 -0.13333198 0.0061198976
-0.0077324621 0.049511958 0.18079348
0.029288867 0.04552342 0.15461172
0.064177759 -0.17618006 -0.032090556
-0.0010474822 0.07434009 0.17842188
0.13821486 -0.045616284 0.069323786
0.038596854 -0.061933611 0.041659094
0.15843016 -0.034548741 0.1051676
-0.14162835 -0.12224646 0.011306464
0.16592953 -0.042213287 0.091359667
-0.080946602 -0.16187921 -0.025602063
0.15438442 -0.026798762 0.11208655
-0.00020576167 -0.070225105 0.050396346
0.1479325 -0.031234112 0.11303956
0.10992583 0.033595163 0.1334842
-0.11197942 -0.14195219 -0.012275786
0.099906564 -0.064736567 0.04560018
0.095861092 -0.16307506 0.0024117639
0.01328119 -0.01845824 0.088510476
-0.14609262 -0.052827317 0.059655804
-0.008405746 -0.06832996 0.051032051
-0.094202571 -0.16897295 -0.0088915341
-0.14363629 -0.080709189 0.035471845
5.9688336e-05 -0.10361094 0.02308701
-0.061454374 0.032640178 0.16663657
0.017967485 0.047809016 0.15603912
0.011527178 -0.072098136 0.041443054
0.010247362 -0.097836182 0.026269214
0.066103689 -0.17969948 -0.011537773
-0.084012434 -0.15850237 0.0056149685
-0.036554858 0.066287391 0.16634469
-0.11139127 -0.13832887 0.023174645
-0.15070613 -0.02892654 0.11497589
0.10110582 -0.13594136 0.0083273454
-0.1064027 0.017966565 0.15432386
-0.09671846 -0.14594454 0.0061913547
-0.011153838 0.07124202 0.17100522
-0.093696378 -0.080821931 0.050261252
-0.0025067136 -0.18849196 -0.032380592
0.16120157 -0.045991946 0.10065638
0.10780882 0.012595193 0.12481771
0.067917868 0.034147874 0.15768448
-0.040030126 0.041117795 0.17374997
-0.084204696 -0.14865994 -4.6889061e-05
0.12587948 -0.020743836 0.12184205
0.076972544 0.036770795 0.17010242
-0.11790545 -0.14146478 0.02054497
0.0098840464 0.069389589 0.16282275
0.1272019 -0.026962914 0.091055505
0.026109973 -0.061898194 0.05608299
0.11363393 -0.13743483 -0.0099095665
0.10905966 -0.1623794 -0.0055305213
-0.14983577 0.0010571564 0.11631597
0.1611664 -0.079995647 0.071277246
0.13600892 -0.012952461 0.12837969
0.05783866 -0.052611094 0.063546546
-0.012857466 -0.14978948 -0.015579659
-0.11615946 -0.070733786 0.047904965
0.016571179 0.041389748 0.17280121
-0.020006578 -0.13462594 0.0058672451
-0.098355055 0.046466116 0.15330677
0.15123926 -0.068658449 0.044150602
-0.092389055 -0.072656289 0.056442816
-0.13562879 -0.0049808784 0.10076836
0.1372537 -0.096870445 0.055669516
-0.013829754 -0.14449583 0.00055724144
-0.14116411 -0.025573689 0.11778919
-0.16898164 -0.039647337 0.080978923
0.093660519 -0.04176145 0.062599882
0.10877693 -0.081983544 0.053222332
-0.15580307 -0.11220756 0.035161089
0.12119388 0.023837289 0.12149549
0.02474769 0.046365164 0.17815308
0.048659194 -0.18348907 -0.034447763
0.0047652633 -0.14276224 -0.01278247
-0.13442308 -0.1211153 0.0073821894
0.12467179 -0.0010431915 0.13837279
0.021233039 0.069345437 0.17595984
-0.13621849 0.0053246533 0.14210927
-0.077603124 0.029185571 0.14698246
-0.13506314 -0.0070258379 0.13335267
-0.046282474 0.062492155 0.15694804
0.11891014 -0.021598216 0.10725002
-0.10972626 0.025586516 0.12644382
0.14585462 0.00068134523 0.11111885
0.14370346 -0.067136005 0.082177863
-0.0048146117 -0.089248747 0.031001354
0.038678173 0.064508349 0.16048858
-0.016986273 -0.049531721 0.068819977
0.10848435 -0.055115376 0.056683403
-0.034468025 -0.035474613 0.074160449
0.09776473 -0.15060738 0.0094123995
-0.020488298 -0.17516638 -0.03928303
-0.10018538 0.014406452 0.15133654
-0.13633063 -0.065951072 0.0517281
