# .PCD v0.7 - Point Cloud Data file format
VERSION 0.7
FIELDS x y z
SIZE 4 4 4
TYPE F F F
COUNT 1 1 1
WIDTH 877
HEIGHT 1
VIEWPOINT 0 0 0 1 0 0 0
POINTS 877
DATA ascii
-0.026937485 0.017656118 -0.1102159
-0.021930426 0.023798257 -0.11022164
-0.016143903 0.027544916 -0.11020929
-0.0052268356 0.031412154 -0.11014962
-0.011171244 -0.030382466 -0.10330229
-0.0043189186 -0.031044463 -0.10398947
0.0043981355 -0.031112192 -0.10402253
0.011378708 -0.030390935 -0.10354258
-0.022246817 -0.022242274 -0.10434893
-0.014948685 -0.025542134 -0.10518579
-0.0053719669 -0.02570729 -0.10630783
0.0052525001 -0.025547504 -0.10635781
0.015029304 -0.025654422 -0.10512553
0.022547031 -0.022524424 -0.10426895
-0.030955127 -0.011807868 -0.10417865
-0.025470238 -0.015090952 -0.10524971
-0.014911829 -0.015125198 -0.10671984
-0.0050371685 -0.014992012 -0.10667199
0.0049707172 -0.015039853 -0.1066796
0.014964671 -0.015050374 -0.10663471
0.02560458 -0.015301485 -0.1051851
0.030765278 -0.011835585 -0.1040362
-0.031398013 -0.0041559828 -0.10440826
-0.025671896 -0.0053317389 -0.10624778
-0.014987825 -0.0049842875 -0.1066829
-0.0051264758 -0.0048775976 -0.10668396
0.0049397866 -0.0049452959 -0.10667934
0.015093745 -0.0050269808 -0.10663366
0.025273941 -0.0051325047 -0.1063248
0.031879514 -0.0045846561 -0.1041558
-0.031435825 0.0045428295 -0.1043727
-0.025624605 0.0053262836 -0.10631533
-0.015048564 0.0050576553 -0.1066846
-0.0050990433 0.0049987556 -0.10668305
0.005059619 0.0049542841 -0.10667473
0.015086579 0.0050605815 -0.10663966
0.025274266 0.0051265229 -0.10636149
0.031912029 0.0047947108 -0.10423752
-0.031034797 0.011922323 -0.10434306
-0.025650818 0.015044047 -0.10538144
-0.014895665 0.01498262 -0.10671414
-0.0050091315 0.014930668 -0.10663654
0.0049783573 0.014870889 -0.10666831
0.015016301 0.014948058 -0.10662874
0.025708027 0.015309837 -0.10524228
0.0308984 0.01211872 -0.10401966
-0.022522701 0.022702659 -0.10454879
-0.015160832 0.025723623 -0.10534284
-0.0052428874 0.025194159 -0.10649103
0.0050288392 0.025053697 -0.10660259
0.015287909 0.025871478 -0.1053199
0.022870613 0.022895645 -0.10432081
-0.011731826 0.030794354 -0.10393021
-0.0047318102 0.031721406 -0.10444088
0.004774427 0.031806484 -0.10435505
0.012118289 0.030776897 -0.10381114
-0.011592007 -0.030508801 -0.094375506
-0.0047074803 -0.031328261 -0.094941847
0.0046058721 -0.031430751 -0.094881311
0.01166028 -0.030630998 -0.094490603
-0.022686305 -0.022578103 -0.094961092
-0.01562188 -0.027176624 -0.095089942
-0.0083517646 -0.029480245 -0.095786594
0.0084345303 -0.0295118 -0.095454954
0.015701219 -0.027476456 -0.095115654
0.022965314 -0.022908578 -0.094920874
-0.030975526 -0.012257571 -0.094653212
-0.027130339 -0.015725192 -0.0950251
0.027461868 -0.016122667 -0.095071159
0.031050032 -0.012125451 -0.094798259
-0.03170361 -0.0042985696 -0.094965674
-0.029580025 -0.0079750661 -0.095516592
0.029457077 -0.0068843691 -0.095647365
0.03224358 -0.0047929832 -0.094992697
-0.031723514 0.0048014186 -0.094929464
-0.029502681 0.0078421934 -0.095864475
0.029330766 0.0069696503 -0.095709436
0.032300793 0.0049530123 -0.094999894
-0.031043796 0.012429651 -0.094735794
-0.027417747 0.015851589 -0.095090389
0.02777029 0.016363261 -0.095063262
0.03113443 0.012520378 -0.094856843
-0.022909965 0.023076382 -0.094857357
-0.016165553 0.027624194 -0.095179744
-0.0087251132 0.029592047 -0.095793925
0.0087781148 0.029618194 -0.096585102
0.016463824 0.027901586 -0.095240325
0.023295457 0.023335241 -0.094849117
-0.0121305 0.030977964 -0.094621211
-0.0049174074 0.032209892 -0.095092505
0.0050040986 0.032288279 -0.095080771
0.01248284 0.030989168 -0.094726503
-0.01189997 -0.030706229 -0.084721886
-0.0048736176 -0.031741101 -0.085012496
0.0049022743 -0.031809624 -0.084979549
0.012280916 -0.03077355 -0.084872454
-0.022969618 -0.022944411 -0.084890425
-0.015906451 -0.027585568 -0.085126467
-0.0089474246 -0.029609585 -0.08585012
0.0086160433 -0.029582156 -0.085596293
0.016078968 -0.027754404 -0.085104734
0.023310602 -0.023155816 -0.08491046
-0.031218238 -0.012521532 -0.084566519
-0.027511789 -0.0159564 -0.085108817
0.027676931 -0.016465496 -0.085129246
0.031185819 -0.01276956 -0.084872633
-0.032025903 -0.0046216412 -0.085032716
-0.029666964 -0.0090411035 -0.08559116
0.029508404 -0.0079619307 -0.086001784
0.032628641 -0.004778326 -0.085034378
-0.032083031 0.0049028881 -0.084979527
-0.029587593 0.0088383481 -0.0858749
0.029504951 0.0073933303 -0.086335428
0.032669552 0.0049990225 -0.085012525
-0.031212691 0.012558894 -0.084885076
-0.027756993 0.016121009 -0.085113153
0.028037809 0.016683118 -0.085145563
0.031322498 0.012872942 -0.084830433
-0.023352148 0.023331931 -0.084820807
-0.016623558 0.027877472 -0.085068762
-0.0092227319 0.029752394 -0.086581729
0.0087892292 0.029724261 -0.085867189
0.016926957 0.028162988 -0.085196413
0.023625614 0.023596328 -0.084865071
-0.012653409 0.031133194 -0.084817842
-0.00505378 0.032670688 -0.085039049
0.0049595479 0.032807112 -0.085029051
0.012822128 0.031201787 -0.084849127
-0.012288067 -0.030882845 -0.074874818
-0.0050999308 -0.032154843 -0.074990459
0.0050851023 -0.032245297 -0.075060979
0.012568644 -0.030931011 -0.074600875
-0.023352169 -0.023209551 -0.074928693
-0.016300464 -0.027902568 -0.075092718
-0.0095208678 -0.029785313 -0.076365769
0.009279063 -0.029798191 -0.07698679
0.016472964 -0.02800045 -0.075278319
0.02359065 -0.023511481 -0.07491044
-0.031429764 -0.012772056 -0.074741893
-0.02795141 -0.016047133 -0.075154997
0.028062016 -0.016672641 -0.07511998
0.031467754 -0.013022095 -0.074918464
-0.032500021 -0.0048595825 -0.075001337
-0.02988331 -0.009154167 -0.077552065
0.02968451 -0.0087796245 -0.07609383
0.03301182 -0.0048608934 -0.07504762
-0.032552652 0.0050891778 -0.074928649
-0.029743519 0.009305316 -0.076121897
0.029600287 0.0089151878 -0.076763898
0.033083722 0.0050150747 -0.07508263
-0.031378832 0.01303239 -0.075088874
-0.028071145 0.016470894 -0.075168259
0.02828186 0.016936505 -0.075288542
0.031505648 0.01335363 -0.074846588
-0.030297879 0.020192727 -0.0740453
-0.023597425 0.02370448 -0.074915238
-0.017006565 0.028165419 -0.075133204
-0.0096065924 0.029983521 -0.076680787
0.0099136606 0.029696167 -0.079928026
0.017372612 0.028359622 -0.075147331
0.023960609 0.023945846 -0.074931316
-0.013043738 0.031395264 -0.074893534
-0.0050536944 0.033149458 -0.075030223
0.0049943379 0.033267129 -0.075055607
0.013282456 0.031465407 -0.074759811
-0.012579485 -0.031136125 -0.064981356
-0.0050735911 -0.032646086 -0.065098107
0.0051367139 -0.032712936 -0.065013856
0.012813241 -0.03121534 -0.064787716
-0.023621714 -0.023607718 -0.064958185
-0.016757132 -0.028123001 -0.0652292
0.0094863698 -0.029976368 -0.069740608
0.016878394 -0.028270939 -0.065245762
0.023823526 -0.023798129 -0.064942263
-0.031442616 -0.013202089 -0.064648025
-0.028093284 -0.01658223 -0.06534519
0.028243413 -0.017001171 -0.065103836
0.031671826 -0.013497483 -0.064847402
-0.032992661 -0.0049373363 -0.065036528
-0.029997915 -0.0099013448 -0.068862349
0.029864293 -0.0092984177 -0.065984815
0.033421841 -0.0050470177 -0.06507951
-0.033088583 0.0050405487 -0.064975128
0.029823249 0.0096574929 -0.064578533
0.033565298 0.0050582904 -0.065076448
-0.031604126 0.013278823 -0.06468603
-0.028302219 0.016850194 -0.06528984
0.028445261 0.017145984 -0.065166682
0.031791996 0.01374167 -0.064820699
-0.030072808 0.020060971 -0.060226232
-0.023950459 0.024020342 -0.064875394
-0.017476147 0.028408939 -0.065235592
0.017757952 0.028567759 -0.065235481
0.024242856 0.024228685 -0.065032326
0.030171789 0.020473689 -0.061294377
-0.020093024 0.030025633 -0.063253641
-0.013421891 0.031659972 -0.064850211
-0.0050670016 0.033684347 -0.064950392
0.0049845488 0.033788409 -0.065009207
0.013653848 0.031713262 -0.06489116
-0.013107698 -0.031329032 -0.054956563
-0.0051056403 -0.033149712 -0.055042844
0.0050202315 -0.033215784 -0.054985877
0.013280441 -0.031430542 -0.054837231
-0.024019038 -0.023891343 -0.054978497
-0.017224675 -0.028383829 -0.055334292
0.017291572 -0.028513025 -0.05516376
0.024169777 -0.024091946 -0.05498679
0.030227214 -0.020026922 -0.051269121
-0.031685453 -0.013534222 -0.054876048
-0.028283715 -0.017162198 -0.055168506
0.02836409 -0.017277015 -0.055127457
0.031843938 -0.013848283 -0.054904949
-0.033536203 -0.0048916778 -0.055076391
0.033932146 -0.0049646418 -0.054988168
-0.033600673 0.0051247082 -0.055011019
0.029995859 0.0097394884 -0.059700757
0.033989273 0.0051498339 -0.054965068
-0.031818777 0.013652097 -0.054860733
-0.028501419 0.01735534 -0.055154394
0.02861047 0.017481452 -0.055340547
0.031983458 0.01409437 -0.054846242
-0.030183077 0.020713018 -0.055123974
-0.024199413 0.024443349 -0.054901566
-0.017761454 0.028656207 -0.055345643
0.018046418 0.028756486 -0.0552474
0.024524113 0.024576113 -0.055036061
0.030462643 0.020409802 -0.053948209
-0.020560388 0.030454779 -0.055072382
-0.013844929 0.031941403 -0.05489229
-0.0050931447 0.034183566 -0.055069156
0.0050007175 0.034294441 -0.055004083
0.014092246 0.031996436 -0.054895654
0.020297689 0.030293541 -0.053288572
-0.013571229 -0.031626806 -0.044951655
-0.0050268713 -0.033689789 -0.044922654
0.0049103168 -0.033759676 -0.044961996
0.013715863 -0.031685818 -0.044882078
-0.030626765 -0.020403296 -0.044126026
-0.02425806 -0.024350664 -0.044943929
-0.017677894 -0.028571423 -0.04524678
0.017540257 -0.028680602 -0.045251012
0.024377948 -0.024497807 -0.044940997
0.030385453 -0.020508772 -0.043134339
-0.031978119 -0.013820978 -0.044823766
-0.028557952 -0.017546074 -0.045302905
0.028581847 -0.017465752 -0.045271553
0.032123439 -0.014217868 -0.04498291
-0.03406496 -0.004865027 -0.04504675
0.034343868 -0.0050458331 -0.045052528
-0.034118362 0.0051377122 -0.045089699
0.034424204 0.0050286506 -0.045136228
-0.032064587 0.014116999 -0.044930458
-0.028816136 0.017693359 -0.04526386
0.028776698 0.01776818 -0.045485165
0.032311086 0.014351375 -0.044881132
-0.030583097 0.021092484 -0.045658
-0.024569377 0.024703082 -0.044962056
-0.017994527 0.028782843 -0.04518735
0.018318083 0.028857859 -0.04537091
0.024746526 0.024952045 -0.045038462
0.030364398 0.02103352 -0.04509623
-0.020925101 0.030434841 -0.044499516
-0.014168317 0.032260697 -0.044942342
-0.0050099394 0.03471566 -0.045116711
0.0050839502 0.034784663 -0.045084096
0.014393835 0.032289583 -0.044842891
0.020643473 0.030539637 -0.044066906
-0.020569736 -0.030231142 -0.034400001
-0.01406646 -0.031935353 -0.034904089
-0.0050060707 -0.034180064 -0.034912232
0.0049585435 -0.03420607 -0.034937218
0.014184372 -0.031956539 -0.034919962
0.020591361 -0.030227786 -0.034414124
-0.030563556 -0.02058004 -0.034274902
-0.024612622 -0.024646681 -0.034962147
-0.018005999 -0.028779654 -0.035339944
0.018015411 -0.028809248 -0.035353646
0.02473549 -0.024712455 -0.034939099
0.03051234 -0.020544754 -0.034191206
-0.032257389 -0.014256643 -0.034860387
-0.028636146 -0.017990613 -0.035329748
0.028668387 -0.017958365 -0.035407234
0.032431643 -0.014291975 -0.034992673
-0.03461707 -0.0049570506 -0.034885995
0.034880392 -0.0048882412 -0.035075806
-0.034683049 0.0051734196 -0.034902796
0.03492539 0.0051358426 -0.035061408
-0.03236822 0.014410521 -0.034913011
-0.028858561 0.017939519 -0.035333801
0.028991759 0.018004108 -0.035358213
0.032564763 0.014607294 -0.035000779
-0.03077532 0.021257648 -0.034334753
-0.024874095 0.025018023 -0.03500063
-0.018382479 0.028874217 -0.035319772
0.018603496 0.029012375 -0.035407647
0.02507863 0.02514939 -0.0350063
0.030767636 0.020984614 -0.034431208
-0.021012982 0.030648902 -0.034981336
-0.014538269 0.032568689 -0.034879476
-0.0049983026 0.035243601 -0.03510572
0.0049489038 0.035322908 -0.035081126
0.014601928 0.032691196 -0.034925979
0.020973558 0.030628065 -0.035151388
-0.020983098 -0.03036201 -0.023959382
-0.014392111 -0.032251794 -0.024926152
-0.0050488836 -0.034673061 -0.024982596
0.0050351978 -0.034698352 -0.025039537
0.014420537 -0.032296576 -0.025007088
0.020783292 -0.030407254 -0.02364938
-0.030789807 -0.020922866 -0.024126645
-0.024912506 -0.024957856 -0.025053658
-0.018384222 -0.028940933 -0.025413066
0.018360259 -0.028961316 -0.025103452
0.024925241 -0.025113955 -0.025074115
0.030685496 -0.020795185 -0.02438242
-0.032707602 -0.014353279 -0.02491479
-0.028963884 -0.018360863 -0.025187775
0.028898343 -0.018303299 -0.025300119
0.032768607 -0.014519759 -0.02503637
-0.035125419 -0.0049122516 -0.024982337
0.035338327 -0.0049454542 -0.025011824
-0.035184942 0.0052097542 -0.024930041
0.035392135 0.0051379874 -0.025001775
-0.0327884 0.014523558 -0.024987994
-0.029073212 0.018249067 -0.025310952
0.029003257 0.018411446 -0.025360441
0.032916889 0.014748795 -0.024973987
-0.030984521 0.021172006 -0.024852799
-0.025285602 0.025246546 -0.025038142
-0.018656228 0.029156527 -0.02534139
0.018643249 0.029148363 -0.025327872
0.025365913 0.02543398 -0.025119195
0.030877337 0.021437863 -0.024785863
-0.021159519 0.030724529 -0.024460327
-0.014779657 0.032964204 -0.025003338
-0.0050778673 0.035744179 -0.025035944
0.0050687203 0.035809007 -0.025105974
0.014862988 0.033040743 -0.02503605
0.021177044 0.030806981 -0.024475701
-0.021052025 -0.030613778 -0.01432762
-0.014665984 -0.032611631 -0.014883873
-0.005147621 -0.035215169 -0.014959264
0.0049687536 -0.035233319 -0.014970186
0.014590813 -0.032678504 -0.014959572
0.021044539 -0.030584063 -0.014513374
-0.030783152 -0.02120436 -0.01402182
-0.025191952 -0.025275458 -0.015061948
-0.018548029 -0.029274382 -0.015574205
0.018599598 -0.029201036 -0.015658155
0.025189238 -0.025384281 -0.014919749
0.030943876 -0.021005824 -0.014749901
-0.032971196 -0.014686145 -0.014948188
-0.029116703 -0.018687064 -0.015586757
0.029179431 -0.018514844 -0.015517143
0.033141244 -0.014590583 -0.015039182
-0.035680391 -0.0049892697 -0.014993734
0.035841785 -0.004823132 -0.015071214
-0.035759285 0.0051858104 -0.01495215
0.035920605 0.0050519975 -0.015181718
-0.033185437 0.014775083 -0.015010543
-0.029294821 0.018563986 -0.015605483
0.029262086 0.018498529 -0.015491365
0.033313897 0.014826328 -0.014870015
-0.031025277 0.021436287 -0.01436696
-0.025644317 0.025522321 -0.015014577
-0.018779228 0.029292788 -0.01608282
0.018960912 0.02930679 -0.015785949
0.025729427 0.025632259 -0.015090205
0.031179005 0.021517852 -0.014582089
-0.021269899 0.030997498 -0.014632509
-0.01486008 0.033440862 -0.015008516
-0.0049804593 0.03629376 -0.014957584
0.0049917838 0.036144745 -0.015060334
0.014863194 0.033487212 -0.014964445
0.021376833 0.030984443 -0.014599317
-0.021294406 -0.030879294 -0.0045058378
-0.014842753 -0.033030689 -0.0048743021
-0.0050471113 -0.035698459 -0.0049789958
0.0050207414 -0.035703491 -0.0049919263
0.014814895 -0.033046961 -0.0050266469
0.021167777 -0.030817851 -0.0045717447
-0.031156451 -0.021556981 -0.0046099476
-0.025470559 -0.025585193 -0.0050019883
-0.018847816 -0.029439211 -0.0058869519
0.019040218 -0.029400812 -0.0050154561
0.025527982 -0.025618074 -0.005060391
0.031149985 -0.021424776 -0.0046209632
-0.033461168 -0.014839178 -0.004935903
-0.02941175 -0.018949458 -0.0062475088
0.029168971 -0.018978523 -0.005566461
0.033453077 -0.01492555 -0.0050072819
-0.03621931 -0.0049518202 -0.0049107033
0.036238085 -0.0049888408 -0.0049298978
-0.036293048 0.0051766806 -0.0047967602
0.036328327 0.0051847748 -0.0049602212
-0.03362038 0.014992366 -0.0050432673
-0.029388707 0.018852878 -0.0046607014
0.029372539 0.018911252 -0.0055170697
0.033720255 0.014984408 -0.0049959621
-0.031298708 0.021680808 -0.0046525639
-0.025918301 0.025891295 -0.0050533633
-0.01916516 0.029528774 -0.0055834195
0.01914674 0.029429397 -0.0050295666
0.025879525 0.025930902 -0.0050144205
0.031359192 0.021774605 -0.0048335437
-0.021350926 0.030818177 -0.004671989
-0.014946838 0.033419151 -0.0051516537
-0.0050244681 0.03631014 -0.0051835314
0.0048424751 0.036205087 -0.0053261002
0.014832721 0.033374418 -0.0051483596
0.0216641 0.030483326 -0.0049878419
-0.021617109 -0.031046221 0.0051902565
-0.015007778 -0.033479065 0.0049138428
-0.0051366901 -0.036207408 0.0049928729
0.0050480738 -0.036200836 0.0049516531
0.015042308 -0.033412527 0.0049038669
0.021618951 -0.031036872 0.0052342215
-0.031336419 -0.021674966 0.0051445202
-0.025816819 -0.025914347 0.0049562547
-0.019210344 -0.029579952 0.0041604261
0.019256569 -0.029541377 0.0036665499
0.025836144 -0.025841327 0.0047957445
0.03131786 -0.021721918 0.0052155671
-0.033857547 -0.015017523 0.0049917637
-0.029525038 -0.019404739 0.0040766895
0.029450791 -0.01943766 0.0040837992
0.033825919 -0.0150349 0.0050048628
-0.036721818 -0.0050012376 0.0050954362
0.036762267 -0.0049847579 0.0049859839
-0.036830083 0.0051206821 0.0052178353
0.036838397 0.005133362 0.0049905451
-0.03411822 0.015009308 0.0049814936
-0.029464645 0.019321522 0.0052613067
0.029593842 0.019330759 0.0036822425
0.034168255 0.015028354 0.0050183916
-0.031582471 0.021896917 0.0050579081
-0.026198206 0.025868049 0.0048032035
-0.019453116 0.029366329 0.0023672953
0.019283157 0.029717714 0.003454484
0.026204806 0.026110003 0.0047868313
0.030780984 0.021270696 0.0050701266
-0.021721041 0.031344473 0.0048446921
-0.014863594 0.03413048 0.0044945301
-0.0049994746 0.036728095 0.0042854385
0.0050366395 0.036539257 0.0042227991
0.015001344 0.03418358 0.0044504404
0.021610389 0.030380607 0.0043573845
-0.021845659 -0.031274233 0.015333584
-0.015051857 -0.033970106 0.014983757
-0.0050174459 -0.036747951 0.014991443
0.0051099663 -0.036719043 0.014939182
0.01508431 -0.03388584 0.01491889
0.02177369 -0.0312558 0.015342256
-0.031520002 -0.021984641 0.015204476
-0.026203228 -0.026184388 0.014892395
-0.019656567 -0.029816881 0.012453631
0.019790538 -0.029724762 0.01391957
0.026074369 -0.026167251 0.014807769
0.031522743 -0.021942386 0.015365468
-0.034350801 -0.015156732 0.01504513
-0.029722225 -0.019586978 0.014564766
0.029712856 -0.019574646 0.012274424
0.034288723 -0.015079837 0.015032276
-0.040247791 -0.0016958317 0.017128531
-0.037340458 -0.0050293934 0.01495683
0.037227985 -0.0050141374 0.014968353
0.040187184 -0.0020048164 0.015538214
-0.040214233 0.0027986455 0.017572893
-0.037384026 0.0051886318 0.014928895
0.037317779 0.0051875501 0.014931292
0.040232375 0.0022710164 0.016169207
-0.034533408 0.015137352 0.015049945
-0.029780297 0.01974904 0.014791387
0.029779619 0.019734304 0.013989702
0.034558922 0.015089346 0.014947178
-0.031453427 0.022192283 0.015100673
-0.026464283 0.026446454 0.014677286
-0.019706633 0.029804289 0.014800288
0.019739814 0.029541612 0.010290653
0.026465043 0.026462084 0.01463188
0.031176219 0.022113672 0.014929686
-0.022210799 0.031437054 0.014980791
-0.015038169 0.034388572 0.014300587
-0.0049140821 0.037480116 0.014181957
0.0049735839 0.03740051 0.014012659
0.014953891 0.034433696 0.014299153
0.02226679 0.031502269 0.014417965
-0.021961406 -0.031267803 0.024695154
-0.015070069 -0.034106862 0.024963696
-0.0050014365 -0.036855672 0.025045862
0.0050401059 -0.036827374 0.024994291
0.015147797 -0.03398608 0.024966823
0.021870203 -0.031245857 0.02457254
-0.031642679 -0.022040233 0.024717005
-0.026278248 -0.026315838 0.02509837
-0.019596405 -0.02955126 0.028246775
0.019467734 -0.029813975 0.028354367
0.026227284 -0.026189759 0.025121436
0.031556331 -0.022039058 0.024862662
-0.034585625 -0.014926058 0.024994692
-0.029719129 -0.019612141 0.027784567
0.029820498 -0.019515511 0.027273377
0.034396112 -0.015089103 0.024996681
-0.040223546 -0.0021813423 0.023698166
-0.037374113 -0.0049583027 0.024985071
0.037261434 -0.0050533502 0.024951655
0.040226426 -0.0016494719 0.024483949
-0.040175918 0.0019271465 0.022832768
-0.037394684 0.0051704696 0.025033753
0.03726805 0.0051715625 0.024912266
0.040167205 0.0020684875 0.024144394
-0.034802441 0.014953396 0.024935147
-0.029501511 0.019703507 0.029386055
0.029822303 0.019646341 0.028108424
0.034688607 0.01498621 0.024927266
-0.031537361 0.022415856 0.024699852
-0.026660733 0.026547819 0.024696162
0.019843757 0.029390037 0.029016912
0.02665231 0.026692828 0.02498485
0.031557977 0.021937609 0.024395546
-0.022028856 0.031432662 0.024362642
-0.015120093 0.035007238 0.024374329
-0.0051340512 0.037583034 0.024308829
0.0049804398 0.037503984 0.0241601
0.014913163 0.034884579 0.024427727
0.022070063 0.031146845 0.023677237
-0.021394821 -0.030916575 0.034276087
-0.014886753 -0.033153854 0.034875598
-0.0050565479 -0.035793953 0.034998905
0.0050752643 -0.035753362 0.034964841
0.014828703 -0.033039428 0.034913816
0.021475524 -0.030900555 0.033785652
-0.031157102 -0.021519406 0.034295525
-0.025607064 -0.02570641 0.035052735
-0.018905394 -0.029315095 0.036372509
0.018953435 -0.029318616 0.036397617
0.025523355 -0.025544858 0.035077572
0.031155618 -0.021511316 0.034027658
-0.033527151 -0.014945698 0.034947265
-0.029304009 -0.018759402 0.036486406
0.029360326 -0.018784156 0.036940407
0.033411611 -0.014809355 0.034913938
-0.040032133 -0.00033897161 0.030071616
-0.036376841 -0.0049511921 0.035023943
0.036257811 -0.0048828637 0.034984056
-0.036433674 0.0051145628 0.035040207
0.03637876 0.0050321142 0.034969784
0.040042654 0.0016131401 0.030182123
-0.033739332 0.014950957 0.034930516
-0.029401116 0.018827002 0.036024157
0.02937147 0.018872403 0.036628522
0.033639904 0.014935986 0.034949724
-0.03140999 0.021668456 0.034331594
-0.025956258 0.025854513 0.034948837
-0.019117441 0.02935091 0.037198838
0.019353682 0.029365057 0.036024969
0.025934672 0.025859937 0.034864262
0.03095619 0.021909552 0.033799164
-0.021522986 0.031325944 0.033737149
-0.014902337 0.033647295 0.034423251
-0.0050818529 0.036692739 0.034446143
0.005087751 0.03654436 0.034394734
0.015027536 0.03370668 0.034213323
0.021840071 0.030917604 0.033193614
-0.020918418 -0.030641221 0.045755681
-0.014657133 -0.032571711 0.045148663
-0.0050855814 -0.035070416 0.044954233
0.005050289 -0.034998257 0.044966705
0.014526286 -0.032463383 0.045112297
0.021141915 -0.030512469 0.045512717
-0.030860256 -0.02117365 0.045638721
-0.025245078 -0.025289239 0.04499514
-0.018603373 -0.02906213 0.044382822
0.018558765 -0.029089481 0.044708051
0.025020346 -0.025178855 0.045110654
0.030907363 -0.020873375 0.045363452
-0.03304033 -0.014734359 0.045084998
-0.029004602 -0.018442789 0.044827305
0.029065799 -0.018559052 0.04479973
0.032832872 -0.014528056 0.045067407
-0.035675481 -0.005014441 0.045040369
0.03545757 -0.0049475958 0.045020115
-0.035753623 0.0051811077 0.045095596
0.03552122 0.0051377113 0.045003355
-0.03320368 0.014812741 0.044890262
-0.029030761 0.018524989 0.044474125
0.029158082 0.01848056 0.044674184
0.032892331 0.014690412 0.04495693
-0.031054126 0.021403683 0.045505092
-0.025390768 0.025433989 0.044186652
-0.01857958 0.029271876 0.044445783
0.01872432 0.029221425 0.044571858
0.025359523 0.025403706 0.044618379
0.030835878 0.021517018 0.044107456
-0.021349 0.030942865 0.045606662
-0.014812826 0.033187099 0.043958683
-0.0048559806 0.036053289 0.044327691
0.0048651393 0.035660353 0.043441083
0.014803511 0.033044513 0.044190809
0.021278288 0.030217502 0.042105898
-0.021748131 -0.031092333 0.056008883
-0.014963125 -0.033665933 0.054990236
-0.0049895346 -0.036375154 0.055138364
0.0049801199 -0.036259271 0.054978341
0.015000132 -0.033436719 0.055110577
0.021648845 -0.031034455 0.055894714
-0.031495128 -0.021817295 0.055723496
-0.026030947 -0.025975447 0.054856598
-0.018996023 -0.029400995 0.052449927
0.019124229 -0.029545851 0.052396253
0.025776098 -0.025779469 0.054945163
0.031295527 -0.021887219 0.055736277
-0.034184206 -0.014999381 0.055048358
-0.029331025 -0.01920256 0.054201711
0.029475693 -0.019207032 0.052805051
0.033810668 -0.014986525 0.05512378
-0.040309284 -0.0013120472 0.058986083
-0.037030946 -0.0050068805 0.054998361
0.036601812 -0.005011701 0.054921895
0.040570702 -0.0027216554 0.058481045
-0.040096298 0.0024463385 0.058969863
-0.037037868 0.0051735109 0.054813735
0.036660995 0.0051923776 0.054982796
0.033341415 0.0084382379 0.041095715
-0.034178864 0.014941949 0.054472312
-0.02943866 0.019011982 0.053891968
0.029512709 0.019018147 0.052522253
0.033916034 0.01508112 0.054777607
-0.031580057 0.022183986 0.055680078
-0.026048029 0.026101774 0.053885061
-0.019122813 0.02951508 0.052094512
0.019231107 0.029364875 0.051954955
0.026111184 0.026083721 0.054397419
0.030997317 0.021611515 0.053332902
-0.022076812 0.031301808 0.055288337
-0.014994568 0.034258727 0.053741023
-0.0051109502 0.037078831 0.053737924
0.0049573602 0.036934361 0.053549763
0.014895499 0.03386534 0.053464253
0.021836318 0.030664124 0.053153843
0.0010496378 0.040049307 0.059382528
-0.022478195 -0.031815473 0.065336525
-0.014951466 -0.035139475 0.06496805
-0.0051062964 -0.037786424 0.065089509
0.0049594641 -0.037684426 0.065015003
0.015053362 -0.034859136 0.06500271
0.022243833 -0.031621072 0.065377451
-0.03212833 -0.022611737 0.065315194
-0.026915416 -0.02700646 0.064815447
0.026682744 -0.026777772 0.06483724
0.031843316 -0.022411354 0.065473601
-0.035620805 -0.015066079 0.065066293
-0.029874921 -0.019448265 0.060425401
0.035133995 -0.015146908 0.065106794
-0.040428121 -0.0033918694 0.065964639
-0.038062956 -0.0052967076 0.064707793
0.037767604 -0.0050638658 0.064852655
0.04057065 -0.0036695737 0.066100173
-0.040469564 0.0037766902 0.06593962
-0.03808881 0.0054062256 0.064803645
0.037810944 0.0051344787 0.064829037
0.038915958 0.0040130839 0.062709942
-0.04037381 0.010057509 0.067043692
-0.03578341 0.015092678 0.064682372
0.035307359 0.015074045 0.06477689
0.040358644 0.010716966 0.0679354
-0.032162197 0.022825593 0.064748898
-0.027285777 0.027139464 0.064242095
0.027056022 0.027068779 0.064587593
0.031427152 0.022547029 0.063853674
-0.022838566 0.032165162 0.065050147
-0.014975469 0.035775807 0.063547112
-0.0053428812 0.038304277 0.063379355
0.0052887821 0.038418487 0.064327009
0.014895714 0.035640094 0.063551471
0.022587789 0.031969488 0.063772336
-0.0028732338 0.040243648 0.066941112
0.0032428144 0.03950927 0.061455362
-0.022306381 -0.031543374 0.074505761
-0.015130826 -0.034631412 0.074972413
-0.005044349 -0.03733689 0.075062633
0.0050775302 -0.037266765 0.075002581
0.015162257 -0.034389805 0.075006902
0.022137212 -0.031399451 0.074515507
-0.031791739 -0.022349631 0.074548118
-0.026599044 -0.026725743 0.075159207
-0.019979849 -0.029546566 0.079060145
0.0199714 -0.029835552 0.079374045
0.026409494 -0.026415419 0.075191803
0.031670813 -0.022108005 0.074480571
-0.035099458 -0.01500646 0.075039782
-0.029791486 -0.019569889 0.07807254
-0.011484901 -0.011386028 0.079456173
-0.0043141297 -0.012271202 0.078842074
0.0040673348 -0.012482646 0.07877627
0.011390261 -0.01104573 0.079277627
0.02968156 -0.01993598 0.07905665
0.034733258 -0.015016639 0.074947439
-0.040334072 -0.0026953791 0.072518446
-0.037911016 -0.0050259805 0.075091653
-0.012853891 -0.0041345186 0.078715086
-0.0050146561 -0.0049326727 0.077104241
0.0048916168 -0.0048085111 0.077407949
0.012535705 -0.0039007922 0.078949399
0.037431546 -0.0051232497 0.075215265
0.040444143 -0.0029608561 0.073112443
-0.04029566 0.0029290249 0.072625332
-0.037908886 0.0052694632 0.075120568
-0.012802418 0.0043902937 0.078571133
-0.0048982683 0.0050354567 0.076918356
0.0049820961 0.0049614827 0.077280447
0.012448924 0.0045154477 0.078964852
0.037451692 0.0053032381 0.075206228
0.04049645 0.0034455429 0.073369458
-0.035308149 0.015093553 0.075038932
-0.011850326 0.011873443 0.079352193
-0.0043236264 0.012556659 0.078581579
0.0042909854 0.012747526 0.078651138
0.011716276 0.010962374 0.079384014
0.029787861 0.019964755 0.077501863
0.034995556 0.015070228 0.074994139
-0.031923182 0.022728762 0.074563742
-0.026836948 0.026773442 0.07476563
0.026762897 0.026689135 0.075034179
0.031880919 0.022546243 0.074428327
-0.022458583 0.03188663 0.073797934
-0.015071074 0.035502125 0.074562728
-0.0052176025 0.038097247 0.074271016
0.00498854 0.038106587 0.074554868
0.014894295 0.035366584 0.074475333
0.022417383 0.031820584 0.073685162
-0.0021094519 0.040173367 0.071571849
0.0041647973 0.03626984 0.056289092
-0.021474481 -0.031024387 0.084232874
-0.014861183 -0.033303473 0.08504685
-0.0049562212 -0.035485275 0.085562877
0.0050276476 -0.035448503 0.085383669
0.014903984 -0.033072278 0.08496768
0.021434885 -0.030882571 0.084311098
-0.031252518 -0.021599015 0.084443547
-0.025415963 -0.025488215 0.08550033
-0.015051269 -0.024772169 0.087094679
-0.005068168 -0.024935013 0.085665733
0.0049793711 -0.024957653 0.085868724
0.015063375 -0.024672622 0.087172046
0.025337271 -0.025297204 0.085300095
0.031216472 -0.021588365 0.084219441
-0.033726249 -0.014830799 0.085102707
-0.024967941 -0.01499554 0.08703319
-0.015134244 -0.015120829 0.083566092
-0.0052976082 -0.016199462 0.081821255
0.0055520255 -0.015875045 0.08202365
0.015087983 -0.01500944 0.084048226
0.024692278 -0.014969965 0.0872759
0.033371393 -0.014833394 0.084875695
-0.035917431 -0.0048168087 0.085610867
-0.025054887 -0.0048840577 0.085335754
-0.016677117 -0.0056426795 0.081825405
-0.008657475 -0.0092823058 0.080220744
0.0085494081 -0.0076942607 0.080507278
0.016015667 -0.005320102 0.082221411
0.024892814 -0.0048463806 0.085958973
0.0357127 -0.0048622219 0.08539997
-0.035912547 0.0050643687 0.085572824
-0.025052741 0.0050181104 0.085339539
-0.016711483 0.0056172893 0.081758
-0.0095635131 0.0077436268 0.080020338
0.0089920126 0.0072360202 0.080422238
0.016052367 0.0052946196 0.082186177
0.024863904 0.0049926434 0.085926972
0.035694595 0.0050799679 0.085469492
-0.033901211 0.014882004 0.085180536
-0.024886435 0.014934064 0.08692544
-0.015203089 0.015275709 0.083408922
-0.0054447893 0.016479904 0.081716515
0.0055802884 0.016183067 0.081909984
0.015089912 0.015046504 0.08383821
0.02455464 0.014900558 0.087136269
0.033586767 0.014940679 0.084950119
-0.031396352 0.021881059 0.084430858
-0.02567911 0.025569916 0.085694291
-0.014910473 0.024760734 0.086934194
-0.0050014402 0.024977272 0.085332274
0.004966225 0.024912739 0.085532531
0.014902123 0.024604486 0.087048903
0.02569592 0.025492055 0.085447922
0.031084161 0.021857899 0.083267242
-0.021958668 0.031309787 0.084468342
-0.014970419 0.033967722 0.084712043
-0.0051082191 0.0361876 0.085004993
0.0049873404 0.035957705 0.08451511
0.014835636 0.033817798 0.084561296
0.021601541 0.031085975 0.082568504
-0.020790258 -0.030494289 0.093105868
-0.01423284 -0.032103006 0.095013417
-0.005029507 -0.034182925 0.095099576
0.0051432163 -0.03394182 0.095160924
0.01399955 -0.032029819 0.094894864
0.021018077 -0.030542698 0.093107581
-0.03066182 -0.020846885 0.093931071
-0.024882646 -0.024812423 0.095074527
-0.017884841 -0.028716896 0.095281221
-0.0061511397 -0.029363379 0.090462625
0.017035743 -0.028278477 0.095197938
0.024339961 -0.024446417 0.095122263
0.030910699 -0.020869417 0.093553416
-0.032567244 -0.014479167 0.094987385
-0.02867575 -0.018116858 0.09495306
0.028217798 -0.01686736 0.095270269
0.032275889 -0.01406795 0.094908543
-0.035107031 -0.004958509 0.095056012
-0.029553771 -0.0084980801 0.09014827
0.029494727 -0.009641041 0.091951214
0.034029599 -0.0049669431 0.09511207
-0.035182986 0.0051415255 0.09501154
-0.029538393 0.0084947124 0.090156227
0.029606894 0.0073900223 0.090755865
0.034154274 0.0050967904 0.095073208
-0.032693021 0.014662001 0.095000595
-0.028951909 0.01834593 0.094824396
0.028384319 0.017049275 0.095074542
0.032371771 0.014226219 0.094981208
-0.030776015 0.021300131 0.094342805
-0.025103785 0.025167577 0.094799094
-0.018501244 0.029044192 0.094717406
-0.0084909797 0.029890783 0.090349972
0.0081248358 0.029883951 0.090424359
0.017747959 0.028489264 0.095149301
0.024774393 0.024715016 0.095133059
0.03104659 0.021266101 0.093958922
-0.02117089 0.030834833 0.094173789
-0.014621044 0.032627229 0.094662122
-0.0050480939 0.035138499 0.094839402
0.0049343896 0.034963313 0.0944672
0.014229173 0.032480828 0.094553895
0.021140078 0.030197922 0.090644427
-0.021005897 -0.030113399 0.1040771
-0.013801297 -0.031703215 0.10340935
-0.0050452962 -0.033667821 0.10369832
0.00512829 -0.033400141 0.10378392
0.013298753 -0.031408988 0.10357586
-0.030332707 -0.020806238 0.10307948
-0.024595007 -0.024554582 0.10337226
-0.017821778 -0.02882714 0.1035817
0.01737636 -0.028390869 0.10399525
0.02397399 -0.023857431 0.10393298
0.030344926 -0.020160284 0.10242321
-0.032281715 -0.0143853 0.1032882
-0.028861642 -0.017759018 0.10324495
0.028408919 -0.01714186 0.10393231
0.031679779 -0.013269123 0.10395029
-0.034766454 -0.0050139967 0.1034192
0.033457771 -0.0049011903 0.10399809
-0.034890853 0.00509908 0.1034406
0.033562213 0.005034578 0.10395683
-0.032513026 0.014587896 0.10340457
-0.028839024 0.01775079 0.10331916
0.0286796 0.017549789 0.10398045
0.031749539 0.013548452 0.10395192
-0.03045002 0.020783953 0.10344151
-0.025040731 0.024974506 0.10347425
-0.018054513 0.028683081 0.10204571
0.018133739 0.02879025 0.10391366
0.024255987 0.024413599 0.10345487
0.031082174 0.020596992 0.10307852
-0.020661592 0.030473819 0.10341077
-0.014464182 0.032312423 0.10323467
-0.0049630986 0.034519169 0.10284857
0.0050174328 0.034498945 0.10350909
0.013831404 0.031923834 0.10311282
0.020847073 0.030516122 0.10226687
0.029278129 -0.018290788 0.11022326
0.017621994 0.028969407 0.11012635
0.024661034 0.023515105 0.1103678
0.0073850155 0.033850372 0.11042997
0.017386883 0.03011182 0.11018166
