# .PCD v0.7 - Point Cloud Data file format
VERSION 0.7
FIELDS x y z
SIZE 4 4 4
TYPE F F F
COUNT 1 1 1
WIDTH 827
HEIGHT 1
VIEWPOINT 0 0 0 1 0 0 0
POINTS 827
DATA ascii
-0.0024663135 -0.080210738 -0.022625446
0.0015284537 -0.080072507 -0.022292677
0.011086896 -0.080799818 -0.022650182
-0.03272542 -0.071432412 -0.022893935
-0.024759656 -0.073296167 -0.023256114
-0.014882192 -0.075049825 -0.023469295
-0.0049081775 -0.075646892 -0.023536742
0.005031839 -0.075706385 -0.023550343
0.014915301 -0.075210355 -0.023440998
0.024759 -0.073613316 -0.023273857
0.033312287 -0.071728632 -0.022902368
0.041041501 -0.070336983 -0.023438223
-0.050948724 -0.060680766 -0.022702537
-0.044192173 -0.063571855 -0.023239953
-0.035291269 -0.065575123 -0.023781778
-0.025010025 -0.064989053 -0.024150509
-0.014993777 -0.065076418 -0.0241371
-0.0049523027 -0.064998008 -0.024127688
0.0050541623 -0.065043464 -0.024119591
0.015082341 -0.065041222 -0.024080273
0.025008509 -0.064993262 -0.024061702
0.035333287 -0.065468676 -0.023789348
0.044580746 -0.064078592 -0.023196951
0.051388722 -0.061166376 -0.022707006
-0.060761888 -0.050847683 -0.022912333
-0.054428518 -0.054419901 -0.023330387
-0.045168575 -0.055242397 -0.024095435
-0.034952562 -0.054987688 -0.024166215
-0.024946056 -0.055000555 -0.02414782
-0.015009403 -0.055051234 -0.024120396
-0.0049037454 -0.054999974 -0.024110099
0.0051208218 -0.055091225 -0.024090968
0.015054091 -0.055005118 -0.024063764
0.025014386 -0.054970201 -0.024076236
0.03507356 -0.055015862 -0.024021098
0.045195837 -0.055059042 -0.023996055
0.054915324 -0.054825671 -0.023302896
0.061302986 -0.051521562 -0.022597656
-0.063544065 -0.044220101 -0.02324312
-0.055247877 -0.045203116 -0.024101969
-0.045042325 -0.045032997 -0.024153259
-0.035051208 -0.045029581 -0.024180291
-0.025034642 -0.045040362 -0.024125211
-0.014973504 -0.045040172 -0.024115603
-0.0048718182 -0.045059886 -0.024094034
0.0051897923 -0.045068312 -0.024085125
0.014996058 -0.045041412 -0.024051102
0.024948811 -0.045045268 -0.024070984
0.035008315 -0.045008283 -0.024018329
0.045109481 -0.045013081 -0.024008356
0.055083405 -0.045067858 -0.02398826
0.064347513 -0.044520035 -0.023206865
0.07025937 -0.040542752 -0.022156075
-0.071375124 -0.032691166 -0.022955541
-0.065538391 -0.035223451 -0.023785768
-0.054998849 -0.035049092 -0.024156664
-0.045019083 -0.03500206 -0.024149839
-0.035043888 -0.035008054 -0.024164347
-0.025063088 -0.035074208 -0.024096308
-0.014956146 -0.035025392 -0.024099935
-0.0048647062 -0.035055343 -0.024059603
0.0050969259 -0.035026181 -0.024074322
0.01500758 -0.03500041 -0.024033736
0.024927536 -0.035018869 -0.024028448
0.034950681 -0.035044126 -0.024011284
0.0450789 -0.034942407 -0.023987077
0.054986138 -0.035061944 -0.023977464
0.065398864 -0.035254806 -0.023774466
0.072040349 -0.033792958 -0.022873992
-0.073105693 -0.024818197 -0.023303637
-0.065026425 -0.024952037 -0.024174772
-0.055047955 -0.024991957 -0.024130799
-0.045082126 -0.024963649 -0.024146955
-0.034978848 -0.024981553 -0.024103584
-0.025038704 -0.025014946 -0.024080932
-0.014972521 -0.025037004 -0.024093986
-0.0049326462 -0.025009649 -0.024021771
0.005097419 -0.025000289 -0.024052871
0.014939124 -0.025026489 -0.024019701
0.025030803 -0.024975576 -0.024020957
0.035024844 -0.024981495 -0.023946106
0.045025267 -0.024929229 -0.023984356
0.055004522 -0.024998002 -0.023946591
0.064959876 -0.025004283 -0.023937425
0.074173257 -0.024788793 -0.023286577
-0.074819118 -0.014961621 -0.023501942
-0.06497772 -0.015039135 -0.02417394
-0.055073619 -0.014987087 -0.024143742
-0.045031633 -0.015020324 -0.02411771
-0.035047796 -0.015019871 -0.024108037
-0.025065223 -0.015003772 -0.024065461
-0.015058259 -0.015063167 -0.024080014
-0.0049644653 -0.015047421 -0.024008345
0.0049671847 -0.015019829 -0.02406577
0.014972392 -0.01508527 -0.023996977
0.025015628 -0.015038856 -0.023976408
0.034987587 -0.014980054 -0.023979325
0.045051217 -0.015017931 -0.023969727
0.0550761 -0.015020804 -0.02392849
0.065043092 -0.015068105 -0.023952123
0.075711787 -0.014960638 -0.023388101
0.080311559 -0.01238716 -0.022482421
-0.080106348 -0.0014237761 -0.021527454
-0.075403199 -0.0049664001 -0.023593655
-0.064971574 -0.0050173174 -0.024143904
-0.055029098 -0.0050111655 -0.024108164
-0.044884574 -0.0050203502 -0.024107505
-0.034837749 -0.0050045541 -0.02408684
-0.024986686 -0.0050098579 -0.024058947
-0.015115031 -0.0050737071 -0.024079824
-0.0049869562 -0.0050021023 -0.024000896
0.004962781 -0.0049959086 -0.024020948
0.014849427 -0.0050249039 -0.023980549
0.024961699 -0.005022129 -0.023978312
0.035032827 -0.0050403848 -0.023961866
0.045037918 -0.0050184168 -0.023947738
0.054936264 -0.0050440077 -0.023924731
0.064924933 -0.0049818675 -0.02391837
0.075673863 -0.0050457572 -0.023578741
0.080640249 -0.0043572173 -0.022743355
-0.080024213 0.00016975403 -0.020516381
-0.075483479 0.0049377871 -0.023573801
-0.065003403 0.0049913893 -0.024134286
-0.055013429 0.0050025545 -0.024085766
-0.044852149 0.0049667736 -0.024102297
-0.034882832 0.0049997661 -0.024080314
-0.024931226 0.0050217789 -0.024015674
-0.015058807 0.0050034453 -0.024066551
-0.0049398383 0.0050412863 -0.023979615
0.0050797504 0.0049900273 -0.024024587
0.014962194 0.005054147 -0.023955047
0.024977975 0.0049941586 -0.023948552
0.03503599 0.0049338709 -0.023964969
0.045052394 0.0050176717 -0.023939749
0.055012267 0.0050222618 -0.023919672
0.064881109 0.0050118696 -0.023896452
0.075690612 0.0050008735 -0.023547836
0.080701374 0.0043143891 -0.022890594
-0.074850425 0.014904626 -0.023529066
-0.064993083 0.014988242 -0.024123706
-0.055046558 0.014959519 -0.02410513
-0.045012396 0.014902669 -0.024072943
-0.0349502 0.014949822 -0.024068674
-0.025014358 0.014979172 -0.024033576
-0.015143834 0.015027961 -0.024036221
-0.004962232 0.014961455 -0.023986297
0.0050679767 0.015032656 -0.024003841
0.014966168 0.014997379 -0.023956375
0.024961842 0.014917926 -0.023941202
0.035012845 0.014960784 -0.023930121
0.045048516 0.01495518 -0.023911586
0.055006746 0.014952681 -0.02389287
0.064982474 0.014973707 -0.023905603
0.075721115 0.01494782 -0.02339259
0.080268726 0.012638413 -0.0225196
-0.073185854 0.024725383 -0.023342248
-0.064987399 0.024989758 -0.024123197
-0.055022135 0.024960835 -0.024078904
-0.044985741 0.024923353 -0.024082877
-0.034970682 0.024992224 -0.024041468
-0.02504549 0.024951059 -0.024008855
-0.015068842 0.025018178 -0.024020473
-0.0050433143 0.025027176 -0.023962284
0.0049357023 0.02502005 -0.024003815
0.014955942 0.025011748 -0.023940522
0.02505748 0.024955466 -0.023960369
0.03502439 0.024986295 -0.023909181
0.045037739 0.024917524 -0.023922117
0.054982904 0.024996273 -0.02388457
0.065009996 0.024964733 -0.023890577
0.074314721 0.024805859 -0.023263184
-0.071365543 0.032831896 -0.023039462
-0.065554246 0.035244279 -0.023778373
-0.055006854 0.034953121 -0.024068281
-0.045037996 0.034989629 -0.024051404
-0.034979526 0.035016116 -0.024051711
-0.025042677 0.03497535 -0.024000796
-0.015031968 0.035013262 -0.024006814
-0.0049888119 0.034996942 -0.023953822
0.0050628353 0.035001189 -0.023986356
0.015002535 0.035008207 -0.023930214
0.025040036 0.034977663 -0.023928704
0.034958895 0.034992926 -0.02390966
0.044990458 0.035026062 -0.023915133
0.055004995 0.034968231 -0.02386771
0.065408483 0.035301462 -0.023686811
0.072166733 0.033826053 -0.023037311
-0.063617215 0.044319917 -0.02336774
-0.055202268 0.045099061 -0.024011862
-0.045068692 0.04504218 -0.02404312
-0.035019271 0.04499593 -0.024066592
-0.024989098 0.045027882 -0.02399303
-0.014967321 0.04501646 -0.024010865
-0.0049748751 0.045012217 -0.023959542
0.0050728531 0.045021608 -0.02397304
0.014959587 0.045017168 -0.023932723
0.02501436 0.045001306 -0.023929304
0.035005078 0.044992659 -0.023908647
0.045125157 0.045053311 -0.023883851
0.055012517 0.045005076 -0.023883998
0.064565398 0.044574194 -0.023220623
0.070499256 0.040502023 -0.023116736
-0.060714912 0.050803449 -0.023135845
-0.05449665 0.054674603 -0.023378346
-0.045083206 0.055195894 -0.024010018
-0.035002477 0.055004373 -0.024041027
-0.02493728 0.05505598 -0.02399179
-0.015006659 0.055068299 -0.023972707
-0.0049002781 0.055100359 -0.023956819
0.005116737 0.055090614 -0.023965858
0.014922865 0.055049241 -0.023907458
0.024935069 0.055034753 -0.023942282
0.035137165 0.055048767 -0.023879206
0.045160476 0.055058174 -0.023878336
0.055038922 0.055053391 -0.023313081
0.061435632 0.051620923 -0.02296681
-0.050903358 0.060909677 -0.023014421
-0.04433899 0.063924596 -0.023311915
-0.035318922 0.065607294 -0.023741456
-0.024933521 0.065032773 -0.023998465
-0.015025764 0.065049231 -0.023961406
-0.0049030217 0.064992234 -0.023962973
0.0050808513 0.065079108 -0.023951739
0.014941815 0.065013267 -0.02392135
0.024973242 0.065047249 -0.02387597
0.035389267 0.065420084 -0.023721449
0.044671822 0.06452515 -0.023256717
0.051624708 0.061350979 -0.022826632
-0.033098698 0.071645349 -0.023040751
-0.024807047 0.073768169 -0.023319941
-0.014904705 0.075483523 -0.0234138
-0.0050697573 0.075774647 -0.023594379
0.0051376675 0.075761437 -0.02358178
0.014914254 0.075639643 -0.023400117
0.024763398 0.074093208 -0.023288758
0.033773784 0.071998961 -0.022988463
0.040747263 0.070306808 -0.022997808
-0.011543289 0.080602437 -0.023670316
-0.0029434063 0.079854652 -0.022734292
0.0028398836 0.079842687 -0.022701161
0.01362139 0.080242358 -0.023239929
-0.00079844519 -0.080055796 -0.014880599
0.00127271 -0.080067202 -0.014863479
-0.032871474 -0.071580097 -0.014962528
-0.025097128 -0.074158475 -0.014961801
-0.014934699 -0.076995321 -0.014983572
-0.0049425219 -0.078277536 -0.01493549
0.0050798887 -0.078376181 -0.014983593
0.01501287 -0.077297091 -0.014960855
0.025020158 -0.074662246 -0.014982494
0.033686735 -0.071835048 -0.015003966
-0.050952457 -0.060738802 -0.015094455
-0.04476231 -0.064237103 -0.014989216
-0.036947034 -0.068402655 -0.015008837
0.037640467 -0.068677753 -0.015046597
0.045093622 -0.065002181 -0.014927677
0.051436041 -0.061296921 -0.01487404
-0.060692027 -0.050919563 -0.014925595
-0.055235054 -0.055240098 -0.01499521
-0.049034063 -0.059294242 -0.014880859
0.049751632 -0.059762739 -0.014975488
0.055881046 -0.055989996 -0.015005074
0.061330251 -0.051622987 -0.014915766
-0.064178094 -0.044728778 -0.015004665
-0.059162423 -0.049077425 -0.015022166
0.059787869 -0.049809664 -0.014741429
0.06534709 -0.04512728 -0.014969481
0.07022348 -0.040330607 -0.015117265
-0.071491323 -0.032911081 -0.015016608
-0.068233401 -0.036761574 -0.01493136
0.068777122 -0.037886739 -0.014960298
0.07219962 -0.034047976 -0.014986381
-0.07386829 -0.025073919 -0.014999567
0.075501278 -0.02503206 -0.015024545
-0.076629974 -0.015038455 -0.015010667
0.078049153 -0.0153413 -0.014959761
0.080234274 -0.011917733 -0.01471523
-0.080140844 -0.00097900629 -0.01149641
-0.077859141 -0.0050342064 -0.014956209
0.078715064 -0.0053163674 -0.014914525
0.080647729 -0.0045003681 -0.014960312
-0.080132499 9.5188618e-05 -0.014191739
-0.077885188 0.0049749925 -0.014973332
0.078712158 0.0053949398 -0.01490042
0.080654137 0.0045014033 -0.014978183
-0.076689847 0.014984098 -0.01499816
0.078107044 0.015365072 -0.014958561
0.08021187 0.012159768 -0.014805498
-0.073972195 0.024997501 -0.015016108
0.075579368 0.025116524 -0.014996712
-0.071521126 0.033029303 -0.015048405
-0.068350174 0.036674041 -0.015024188
0.068874761 0.037968881 -0.014919396
0.072286129 0.034170032 -0.014998578
-0.072626956 0.047246695 -0.012967791
-0.066242896 0.045745105 -0.015727665
-0.059245538 0.049176879 -0.01567827
0.059874196 0.049865253 -0.014822498
0.065550007 0.045191672 -0.01499032
0.070170209 0.040615853 -0.014697715
-0.080428064 0.052600335 -0.012140906
-0.075358652 0.053965252 -0.013254996
-0.06550578 0.051502492 -0.013428199
-0.055246074 0.055569779 -0.015042339
-0.049250238 0.059373122 -0.015029364
0.049898744 0.059740745 -0.01593221
0.056114219 0.0561869 -0.015021103
0.061390575 0.051650662 -0.014958228
-0.050998844 0.06095589 -0.014820674
-0.044934027 0.064515181 -0.01500497
-0.03741518 0.068594567 -0.014940817
0.037862394 0.068884619 -0.014985826
0.045092314 0.06551566 -0.014978416
0.051540527 0.061345536 -0.015157089
-0.033297643 0.071773008 -0.01495039
-0.025242336 0.074445881 -0.015028276
-0.014875537 0.077208862 -0.015027058
-0.0052039013 0.078180164 -0.015091444
0.0057193176 0.07828211 -0.015093628
0.014917397 0.077582389 -0.015071966
0.024806058 0.074929692 -0.014978088
0.033852424 0.072100595 -0.014932491
0.0403459 0.070161544 -0.014563689
-0.0022386094 0.079430379 -0.015046953
0.0031681 0.079495445 -0.015019807
-0.00079844892 -0.080055803 -0.0045590997
0.0012727114 -0.080067202 -0.0045563965
-0.032981586 -0.071547195 -0.0049956157
-0.025049169 -0.074187882 -0.0049799867
-0.015065175 -0.076971136 -0.0049832426
-0.0049943323 -0.078252874 -0.0049516628
0.0050894045 -0.07836999 -0.0049776686
0.015047532 -0.077288061 -0.004979765
0.025055908 -0.074645907 -0.0049414989
0.033665705 -0.071832262 -0.0050062356
-0.050961472 -0.060731005 -0.004961797
-0.044795435 -0.064232878 -0.0050012139
-0.036930334 -0.068403035 -0.0050310618
0.037565757 -0.06870342 -0.0050637033
0.045038126 -0.065019168 -0.0049604923
0.051406343 -0.061323784 -0.0049323863
-0.060766805 -0.050897744 -0.0048261965
-0.055244595 -0.05524236 -0.0049589756
-0.049023602 -0.05927531 -0.0047520758
0.049769334 -0.059763599 -0.0048984261
0.055887636 -0.055950604 -0.0049833334
0.061353337 -0.051619537 -0.0050186547
-0.064130045 -0.044791162 -0.0050434009
-0.059176218 -0.049052499 -0.005050261
0.059815783 -0.049798865 -0.0051499791
0.065314919 -0.045125656 -0.0049653053
0.07016471 -0.040361885 -0.0055444762
-0.071523227 -0.03290021 -0.0049675815
-0.068260387 -0.036757983 -0.0049445732
0.068811752 -0.037817702 -0.0050800485
0.072164088 -0.03414106 -0.0049952194
-0.073892646 -0.025062552 -0.0049578156
0.075456738 -0.025113981 -0.0049684886
-0.076627299 -0.015074897 -0.0050250366
0.078056104 -0.015291632 -0.0049816687
0.080223657 -0.011917508 -0.0048016733
-0.080102235 -0.0012826324 -0.0045109913
-0.077868968 -0.005019974 -0.0049409643
0.078711107 -0.0052700904 -0.0049562585
0.0806292 -0.0045104502 -0.0048963074
-0.080001563 1.1920929e-05 -0.0049080849
-0.077909015 0.0049419473 -0.0049385261
0.078729875 0.0053168475 -0.0049945484
0.080635354 0.0045205746 -0.0048880209
-0.07668414 0.015087518 -0.0049341302
0.078107648 0.015331171 -0.0049870708
0.080221377 0.01221022 -0.0049027228
-0.073987812 0.025046581 -0.0049606035
0.075558215 0.025040518 -0.0049872668
-0.071562372 0.033036843 -0.0049126535
-0.068448059 0.036767401 -0.0048828758
0.068876028 0.037905037 -0.005014143
0.072323054 0.03412142 -0.0049683279
-0.072532371 0.047463268 -0.0078994967
-0.065961272 0.045627791 -0.0048491056
-0.05925208 0.049201202 -0.0043034479
0.059825208 0.049886666 -0.0064354939
0.065582745 0.045121361 -0.0049984404
0.07026194 0.040566064 -0.0052734627
-0.080448434 0.052842863 -0.008393283
-0.075405762 0.053979486 -0.0074272794
-0.065151453 0.051315188 -0.0070257355
-0.055272389 0.055563871 -0.0049279821
-0.04928501 0.059388246 -0.0046361014
0.049730867 0.059872936 -0.0036847543
0.056080993 0.056202829 -0.0049967282
0.061393656 0.051617619 -0.0050038174
-0.051018216 0.060930315 -0.0048854547
-0.04488017 0.064544976 -0.0049698986
-0.037353795 0.068609446 -0.0050013885
0.037819039 0.068902858 -0.0050822468
0.045034237 0.065442815 -0.0049522775
0.051608276 0.061313003 -0.0049857832
-0.033069853 0.071532995 -0.0049187192
-0.025097271 0.074255079 -0.0050798147
-0.015018312 0.077199161 -0.0051103476
-0.0054473346 0.078208752 -0.0050521782
0.005428053 0.078389205 -0.0050182743
0.015160536 0.07742925 -0.0051068664
0.024752691 0.074951492 -0.0050813388
0.033722766 0.071873672 -0.0049741361
0.040267944 0.070150629 -0.0024586879
-0.0028317024 0.078162655 -0.0053988141
0.002296051 0.078201719 -0.0055043595
-0.00079844682 -0.080055803 0.0051173214
0.0012727071 -0.080067232 0.005106491
-0.032862425 -0.071558073 0.0049452744
-0.024873434 -0.073868707 0.0052282522
-0.014886018 -0.075974144 0.0054028691
-0.0049126609 -0.076864593 0.0055041928
0.005054893 -0.076884694 0.0054961927
0.014975329 -0.076139309 0.0054296851
0.024867201 -0.074255414 0.005305714
0.033635147 -0.071816236 0.0049622171
-0.050969806 -0.060751457 0.0049541723
-0.044559091 -0.063994847 0.0052085845
-0.035869785 -0.066488169 0.0057079024
-0.024987841 -0.065010451 0.0061855074
-0.015014763 -0.064754494 0.0060323542
-0.0049821516 -0.064726189 0.0060200393
0.0049267518 -0.064693876 0.0060227262
0.014929989 -0.064792857 0.006018457
0.024990283 -0.064999416 0.0061292546
0.035825081 -0.066220812 0.0058073574
0.044785075 -0.0646917 0.0052278801
0.051404063 -0.0612901 0.0050524389
-0.060734831 -0.050938565 0.0051828907
-0.054946642 -0.054885246 0.0052708494
-0.045459531 -0.055458814 0.0061433427
-0.034915086 -0.054887887 0.0060184118
-0.024963856 -0.054846961 0.0060713314
-0.014997274 -0.054966062 0.0060638571
-0.0050735176 -0.054939009 0.0060582128
0.0050164838 -0.05498755 0.0060763378
0.014918404 -0.054955713 0.0060929335
0.02479592 -0.054866914 0.0060755555
0.034805536 -0.05490382 0.0060072383
0.045077357 -0.055113293 0.0061631096
0.055385511 -0.055419534 0.0053411005
0.061334658 -0.051614173 0.0050191809
-0.064016491 -0.044476751 0.0051741144
-0.055439148 -0.045477334 0.00616928
-0.044880781 -0.044879388 0.0060604084
-0.034954775 -0.045013532 0.0060468637
-0.024877284 -0.044921421 0.0060633766
-0.014946802 -0.044933058 0.0060678972
-0.0050043021 -0.044879038 0.0060657174
0.0050234315 -0.044900209 0.00608123
0.014983951 -0.044940218 0.0060980949
0.024890734 -0.044931632 0.0060709217
0.034885556 -0.044983391 0.0060534398
0.044855151 -0.044882704 0.0059607909
0.054994829 -0.045119226 0.0061735478
0.06493289 -0.044815652 0.0052533075
0.070213027 -0.040401146 0.005138549
-0.071509592 -0.032900959 0.0050165709
-0.066519879 -0.035727058 0.0057675084
-0.054693814 -0.034964226 0.0060501718
-0.044903062 -0.034925595 0.0060493816
-0.035016745 -0.035112046 0.0060141613
-0.024965588 -0.034939285 0.0060241935
-0.014966223 -0.035013899 0.0060832789
-0.0049621603 -0.03500082 0.0060578603
0.0050970186 -0.034986891 0.006081624
0.01502937 -0.035053361 0.0060876468
0.024853727 -0.034962576 0.0060872417
0.034825142 -0.035032127 0.006046887
0.044930402 -0.034916312 0.0060375645
0.054812573 -0.034968685 0.0059549464
0.065931991 -0.035736766 0.0060140425
0.072168514 -0.034112599 0.0050027976
-0.073621437 -0.024933845 0.0052690567
-0.06497363 -0.02504684 0.0062551876
-0.054871678 -0.024914246 0.0060459068
-0.044911221 -0.025008876 0.0059951995
-0.035041895 -0.025071638 0.0059916545
-0.025035556 -0.024964567 0.0060274065
-0.015117449 -0.025001537 0.0060345912
-0.0050537447 -0.024990795 0.0060428148
0.0050939918 -0.025000434 0.006046087
0.015055773 -0.025005311 0.0060613574
0.024920322 -0.024999361 0.0060706115
0.034888376 -0.025015669 0.0060790703
0.044949714 -0.024971062 0.0060339067
0.054928731 -0.024975799 0.0059831492
0.065004081 -0.025108088 0.006040832
0.074899174 -0.024857912 0.0052944897
-0.075741664 -0.015012561 0.0054402896
-0.064742208 -0.015015928 0.0060536824
-0.054842394 -0.014970395 0.0059836265
-0.044950463 -0.014992592 0.0059813973
-0.034951236 -0.015005561 0.0059901504
-0.024919797 -0.014986703 0.0060121608
-0.015122897 -0.014971283 0.0060061226
-0.0050581596 -0.015021277 0.0060431049
0.0051318188 -0.014967709 0.0060450644
0.015137304 -0.014962544 0.0060822605
0.025038246 -0.014984978 0.0060373303
0.034917586 -0.015045947 0.0060714278
0.044928662 -0.014981555 0.0060393661
0.054943986 -0.014999299 0.006009791
0.064827591 -0.014955464 0.0058962828
0.076711841 -0.015144913 0.0054901284
0.080227979 -0.011939626 0.0048643267
-0.080136053 -0.00084754825 0.0051519349
-0.076658659 -0.0049983063 0.0055520628
-0.06476213 -0.0049784523 0.0060547614
-0.054946076 -0.0050057778 0.0059570721
-0.044959787 -0.0049642292 0.005982744
-0.035043158 -0.0049554827 0.0059850398
-0.025078494 -0.0049834987 0.0060252156
-0.015129718 -0.0050370293 0.006003249
-0.004953613 -0.0049756239 0.0060225045
0.0051036105 -0.0049904184 0.0060345358
0.014931906 -0.0049961959 0.0060794703
0.025031848 -0.0050033485 0.006053071
0.035060205 -0.0049545523 0.0060570831
0.044912539 -0.0049524074 0.0060594268
0.054889776 -0.0050226105 0.0059979437
0.064695843 -0.0050202524 0.0059407321
0.07667736 -0.0051545487 0.0057122
0.080646679 -0.0043766992 0.0050075389
-0.076694109 0.0049350434 0.0055339797
-0.064791963 0.0050115301 0.0060441555
-0.054901708 0.0049944334 0.0059452876
-0.044933081 0.0050842324 0.0059712385
-0.035028547 0.0049998229 0.0059783659
-0.025015458 0.0050375052 0.0059870179
-0.015098208 0.0050209244 0.0059906067
-0.0049421173 0.0050096768 0.0059991851
0.0051749884 0.0050200918 0.0060492856
0.015022358 0.0050473725 0.0060298941
0.025058839 0.0049755117 0.0060401917
0.035037741 0.0050202101 0.0060472502
0.044898745 0.0050592432 0.0060705729
0.054878399 0.0050343955 0.005965197
0.06471473 0.0050099972 0.005944836
0.076618403 0.0052067335 0.0056816954
0.080634341 0.0044512581 0.0049909493
-0.075793304 0.014937344 0.0055210311
-0.064808249 0.015031688 0.0060705016
-0.054935701 0.015069703 0.0059607024
-0.044922672 0.014986602 0.0059640184
-0.034895178 0.015034234 0.005982595
-0.024932431 0.015035222 0.0059989206
-0.015034151 0.015075083 0.0060067843
-0.0049048164 0.014948376 0.0060044364
0.0051504509 0.014955574 0.0060433191
0.015039718 0.015073395 0.0060312403
0.024988715 0.015039946 0.0060212668
0.034934878 0.015012978 0.0060413573
0.044934165 0.01504431 0.006032187
0.054976914 0.015022235 0.0059996531
0.064878225 0.01502536 0.0059083663
0.076763198 0.015135638 0.005491829
0.080242157 0.012277584 0.0049086367
-0.073656216 0.024876252 0.0053642634
-0.064840771 0.024998216 0.0062403805
-0.054842621 0.025066003 0.006017318
-0.044964693 0.025013169 0.0059937341
-0.035004392 0.025037134 0.0059664561
-0.02494042 0.025063617 0.0059734681
-0.014983817 0.025097718 0.0059807249
-0.0049728765 0.025000338 0.0060183667
0.0051462185 0.025064526 0.0060143289
0.015003042 0.0250798 0.0060349307
0.024946095 0.025044639 0.0060199406
0.034914121 0.025033571 0.0060563446
0.045013241 0.025031071 0.0060075284
0.054985102 0.025080139 0.0059943213
0.064872064 0.024990872 0.006005594
0.074892119 0.024915526 0.0053530401
-0.071536146 0.03311196 0.0050673345
-0.066516422 0.035677474 0.0058775232
-0.054727994 0.034928434 0.0060683973
-0.044848956 0.03495717 0.0060013989
-0.035016123 0.034997072 0.0059406338
-0.024951873 0.03496046 0.0059635378
-0.015051189 0.034986198 0.0059749968
-0.0049522049 0.035034575 0.0059762988
0.0051034479 0.035113361 0.0059847459
0.015056415 0.034987558 0.0060122553
0.024943385 0.034955401 0.0060215956
0.034864947 0.034993593 0.0059876554
0.044803321 0.034896869 0.0059936466
0.054760799 0.034946706 0.005974933
0.066023111 0.035696547 0.0060301339
0.072314762 0.034087047 0.0049954308
-0.06416972 0.044506237 0.0053000106
-0.055354167 0.04533349 0.0062311487
-0.044881288 0.044853002 0.0060739806
-0.034925159 0.044915706 0.0060183913
-0.024892593 0.044908706 0.0060054227
-0.015003413 0.04487614 0.0060113794
-0.0050074868 0.044959147 0.0060186135
0.0051039527 0.044941247 0.0060123452
0.015080864 0.044876896 0.0060198791
0.024949634 0.044869818 0.0060411026
0.034879576 0.044962592 0.0060144095
0.044973478 0.044839021 0.0059842882
0.054998517 0.044969555 0.0061767148
0.065101214 0.044856876 0.0052940384
0.07016094 0.040634196 0.0048638619
-0.060812272 0.050959084 0.0052054459
-0.054934103 0.055047873 0.0053651077
-0.045215182 0.055206206 0.0062301364
-0.034956228 0.054878719 0.0060860869
-0.025039384 0.054860841 0.0060569826
-0.015019415 0.054937884 0.0060073258
-0.0049670814 0.054965016 0.0060319216
0.0051193028 0.054957546 0.0060360953
0.014927134 0.054921649 0.0060594925
0.024861418 0.054850474 0.0060525467
0.034842212 0.054891679 0.006057763
0.044980496 0.05502763 0.0061728428
0.055535901 0.055533983 0.0053924806
0.061383996 0.051672939 0.0049876538
-0.050989769 0.060976967 0.0051031527
-0.044494517 0.063967921 0.0052672215
-0.035986692 0.066476285 0.005817282
-0.024887325 0.064638704 0.0061258879
-0.014916548 0.064839467 0.0061099934
-0.0049760179 0.064719371 0.0061008553
0.0049825949 0.064685471 0.0060736425
0.014882765 0.064834617 0.0061164852
0.024816521 0.064729638 0.0060756286
0.035677109 0.066152029 0.0059650796
0.044604868 0.064874068 0.0053224945
0.051531434 0.061370242 0.0048661553
-0.032921858 0.071263909 0.0049190857
-0.025004948 0.073965929 0.0052368441
-0.014822623 0.076095745 0.0053188857
-0.0052084029 0.076387823 0.0055098673
0.0052190451 0.07644023 0.0055599408
0.015087208 0.076166034 0.0053171883
0.024842804 0.074341267 0.0052547879
0.033540629 0.071916416 0.0049246396
0.04337503 0.052790038 0.0018227609
-0.0025838297 0.078895763 0.0046790442
0.0031157364 0.078954957 0.0046575358
-0.00079845637 -0.080055818 0.014793733
0.0012727082 -0.080067202 0.014769379
-0.032926925 -0.071546242 0.015000148
-0.024737261 -0.073616348 0.015003643
-0.015017896 -0.075755313 0.015006236
-0.0049800482 -0.077035457 0.015138837
0.0050792857 -0.077100448 0.01508474
0.015030963 -0.075960763 0.015040412
0.02472546 -0.0739666 0.015025792
0.033638693 -0.071805276 0.014956439
-0.050991718 -0.06075415 0.015155963
-0.044386093 -0.06387879 0.015027486
-0.036097962 -0.067131631 0.015021346
-0.026996965 -0.068997465 0.015137763
0.026998704 -0.069071904 0.015177616
0.036180124 -0.067064613 0.015054241
0.044637449 -0.064448662 0.015050305
0.051411673 -0.061311308 0.015041775
-0.060744066 -0.050978366 0.015088268
-0.054756977 -0.054738238 0.014986483
-0.047360845 -0.05798177 0.015092832
0.04725315 -0.057753224 0.015055327
0.055173256 -0.055301871 0.015092835
0.061294015 -0.051625863 0.015002109
-0.063777536 -0.044388093 0.015009261
-0.057896551 -0.047542457 0.015195479
0.05773057 -0.047266487 0.015130908
0.064728759 -0.044685081 0.01508128
0.070181765 -0.040402133 0.014481813
-0.071497433 -0.032937557 0.015069667
-0.067168705 -0.036029283 0.015059579
0.067110829 -0.036125716 0.015168586
0.07215891 -0.033950493 0.015008877
-0.073316842 -0.024777172 0.014968397
-0.069119237 -0.027541561 0.015133246
0.069259666 -0.027920367 0.015058642
0.074490204 -0.024764678 0.015038482
-0.075724728 -0.015073241 0.015079426
0.076655045 -0.015193442 0.015106698
0.08024478 -0.01200663 0.014967286
-0.080098316 -0.0011462569 0.011844724
-0.076929472 -0.0050142398 0.015086119
0.077171251 -0.0051825866 0.015138415
0.080615073 -0.004458081 0.014975804
-0.076999672 0.0049579213 0.01503265
0.077181436 0.0051983939 0.015020463
0.080610998 0.0044684261 0.015009406
-0.075828917 0.015009308 0.015070958
0.076764092 0.015283678 0.015088006
0.080257863 0.012114139 0.014850712
-0.073356971 0.024818489 0.015029834
-0.069392726 0.028027954 0.015237402
0.069517337 0.0284939 0.015086023
0.074467912 0.024873085 0.015044447
-0.071526974 0.032998461 0.0150483
-0.067533672 0.036137182 0.015108509
0.067529738 0.036100052 0.015192083
0.072256997 0.034067772 0.014994816
-0.063914761 0.044475954 0.014991469
-0.058429491 0.048085265 0.015150717
0.058316965 0.047912799 0.015131271
0.064832143 0.044772863 0.015061337
0.070229158 0.040566698 0.015318889
-0.060774334 0.050987672 0.014992101
-0.054894574 0.054920763 0.015019459
-0.04806526 0.058475513 0.015027848
0.048017673 0.058370482 0.015019007
0.055325538 0.05542976 0.015029547
0.061426423 0.051691845 0.014973189
-0.050693274 0.060629468 0.015162668
-0.044576354 0.06404642 0.015000419
-0.036335345 0.067767031 0.015039385
-0.029028041 0.069550648 0.01478095
0.029007666 0.069612615 0.014914487
0.036262505 0.067729071 0.015095306
0.044715405 0.06475272 0.015001771
0.050979134 0.06062416 0.014834881
-0.033072628 0.071498163 0.014785315
-0.025013633 0.073694669 0.014897404
-0.015047395 0.076169893 0.014827037
-0.0054041022 0.077313147 0.014932181
0.005309382 0.077316731 0.01499858
0.015050543 0.076372474 0.014832511
0.024796214 0.073811129 0.014836397
0.033772141 0.07184241 0.014735149
0.040394381 0.070160642 0.015363093
-0.0021369003 0.078704223 0.014672494
0.0033263997 0.078712747 0.014673678
-0.00068712683 -0.080406025 0.022068903
0.0013856506 -0.0801083 0.022382122
-0.03269406 -0.071482249 0.022857729
-0.024631253 -0.07317733 0.02308814
-0.015017302 -0.075369686 0.023080612
-0.0049521769 -0.07662452 0.023112807
0.0050925179 -0.076710477 0.023098189
0.015076342 -0.075567856 0.023178022
0.024688343 -0.07345593 0.023147181
0.033325631 -0.07171645 0.02295585
-0.051005252 -0.060673889 0.022726262
-0.044207454 -0.063520558 0.023017429
-0.035825588 -0.066980124 0.023104046
-0.027203735 -0.06903486 0.023027798
0.02733002 -0.069115974 0.023123352
0.03601497 -0.067135334 0.023243984
0.044544119 -0.06398344 0.023177603
0.051432829 -0.061228361 0.022814643
-0.060608108 -0.051052995 0.022504071
-0.054543741 -0.054492097 0.023011798
-0.04747425 -0.057933159 0.023099272
0.04747612 -0.058005512 0.023136819
0.054946966 -0.054919515 0.023217428
0.061274871 -0.051484186 0.022880459
-0.063529722 -0.044184338 0.022959361
-0.057955649 -0.047423415 0.023131292
0.058009058 -0.04748613 0.023190595
0.064297311 -0.044504922 0.023227036
0.070230782 -0.040479343 0.022450835
-0.071425095 -0.032725971 0.02280947
-0.066996023 -0.035811242 0.023071198
0.067319758 -0.036020689 0.023308579
0.071990311 -0.033640698 0.02302471
-0.073042206 -0.024759818 0.022974955
-0.069079109 -0.027258366 0.022999775
0.06924732 -0.027995823 0.022831492
0.073983707 -0.024732992 0.023201182
-0.08066982 -0.010195494 0.023795843
-0.075329445 -0.015032488 0.022994831
0.076335832 -0.015129757 0.023213066
0.080248445 -0.01193405 0.022619417
-0.080089845 -0.004230862 0.023691013
-0.076593868 -0.0050061308 0.022980152
0.077103078 -0.00511911 0.023276597
0.08060772 -0.0041256547 0.022607015
-0.080603421 0.0028795921 0.023611493
-0.076696463 0.0050191162 0.022960793
0.077174477 0.0051454562 0.023231646
0.080597706 0.0042211171 0.022656605
-0.080038726 0.011470079 0.023779064
-0.075485192 0.015045887 0.022994969
0.076472014 0.015205052 0.023185436
0.080249898 0.012446531 0.022451226
-0.073160008 0.024732491 0.022945231
-0.069311976 0.027502306 0.023152173
0.069424175 0.02818018 0.022787899
0.074083067 0.024898184 0.023174779
-0.071497612 0.033021644 0.022936121
-0.067336805 0.035881773 0.023005681
0.06759344 0.036187783 0.023216737
0.072088458 0.033722974 0.023112953
-0.063747212 0.044407662 0.02297038
-0.058352482 0.047911718 0.023026019
0.058312453 0.048023406 0.023059823
0.064485289 0.044750292 0.023182742
0.070199989 0.040637899 0.022445846
-0.060849398 0.051087245 0.02293648
-0.054797303 0.054843787 0.022999983
-0.047948346 0.058297932 0.023043845
0.048085302 0.058302607 0.02307128
0.055259794 0.055252392 0.023173911
0.061236765 0.05166528 0.023032142
-0.051150855 0.060892701 0.022887027
-0.044271525 0.063713565 0.022941208
-0.036113556 0.067434326 0.022940092
-0.028458579 0.069393352 0.022877811
0.028549975 0.069388844 0.023101168
0.03621231 0.067714661 0.023152666
0.044664148 0.064381242 0.023072641
0.051520392 0.061235007 0.023027331
-0.041384716 0.070802629 0.024353415
-0.032968637 0.071501702 0.022801491
-0.024948146 0.073501073 0.022938749
-0.015093841 0.076082543 0.022940289
-0.0051620458 0.077207685 0.02307136
0.0052638985 0.077188157 0.023068344
0.01506429 0.076374166 0.023009468
0.024859825 0.073821515 0.023060326
0.033560909 0.07174781 0.022897998
0.041027837 0.07056728 0.023813769
-0.012969673 0.080354095 0.023572519
-0.0029205827 0.077452675 0.021791205
0.0031444367 0.077248909 0.021673787
0.012869293 0.080329917 0.02313542
