# .PCD v0.7 - Point Cloud Data file format
VERSION 0.7
FIELDS x y z
SIZE 4 4 4
TYPE F F F
COUNT 1 1 1
WIDTH 1293
HEIGHT 1
VIEWPOINT 0 0 0 1 0 0 0
POINTS 1293
DATA ascii
0.045016598 0.035176337 -0.11543211
0.054957505 0.03499154 -0.11547687
0.064625867 0.033810664 -0.11484183
0.07292933 0.031006115 -0.11455301
-0.023959011 0.040137827 -0.11079982
-0.013990751 0.04026271 -0.11227307
-0.0090925694 0.040330045 -0.113653
0.016854426 0.040231884 -0.11281448
0.02426463 0.040279105 -0.1112885
-0.031925004 -0.032022782 -0.10505211
-0.025387568 -0.036122885 -0.10503024
-0.015022853 -0.037041087 -0.10490122
-0.0051294542 -0.03709415 -0.10501812
0.0047968221 -0.037038255 -0.10505915
0.014919077 -0.037088376 -0.10502837
0.025054572 -0.037065029 -0.105022
0.034990102 -0.036962319 -0.10505771
0.045056831 -0.035529662 -0.10490848
0.054961126 -0.035215314 -0.1050145
0.065168731 -0.034241267 -0.10504749
0.070942745 -0.03195345 -0.10462014
-0.032037869 -0.025055157 -0.1051949
0.069391824 -0.029135905 -0.10612109
0.076261953 -0.026397051 -0.1051203
0.080814622 -0.022427218 -0.104855
-0.032179844 -0.015202826 -0.10521001
0.078443013 -0.014869857 -0.10550761
0.081068352 -0.016206931 -0.10272808
-0.032827765 -0.005037969 -0.1049253
0.078358106 -0.0051270598 -0.10539978
0.081569828 -0.0046654441 -0.10157013
-0.032874335 0.005026089 -0.10488461
0.078391269 0.0049542356 -0.1054794
0.081409715 0.0050694831 -0.10146218
-0.032204684 0.015069818 -0.10503206
0.078489356 0.014832858 -0.10539184
0.081166722 0.015366204 -0.10228498
-0.032020155 0.025016339 -0.10496978
0.077685386 0.026423188 -0.10510686
0.080847546 0.023191666 -0.10504296
-0.031775337 0.033200998 -0.10490006
-0.025243374 0.037873965 -0.10506102
-0.015088869 0.038973622 -0.10509183
-0.0050156945 0.039004765 -0.10504261
0.0049834233 0.038976539 -0.1050471
0.015104723 0.039017763 -0.1050419
0.025183914 0.039023157 -0.10519467
0.035280686 0.038895637 -0.10508814
0.045079973 0.037498768 -0.10516043
0.055246729 0.037259977 -0.10497279
0.065315053 0.035746753 -0.10498779
0.072334714 0.031906143 -0.10504989
-0.023682741 0.040195614 -0.10725867
-0.014569109 0.040192816 -0.10488226
-0.0049460633 0.040250883 -0.10527536
0.0052113347 0.04023695 -0.10492478
0.015227629 0.040178582 -0.10491742
0.024379691 0.040179212 -0.10600159
0.03439007 0.040151469 -0.10625072
-0.031672861 -0.032089517 -0.095423549
-0.025323585 -0.035741046 -0.094789214
-0.015144797 -0.037020531 -0.09496145
-0.0048990673 -0.03706095 -0.09528549
0.0049253344 -0.037026454 -0.095051482
0.015145651 -0.037056535 -0.094961591
0.025025317 -0.03704223 -0.095064498
0.035094567 -0.036933646 -0.095004834
0.044820424 -0.035521813 -0.095060296
0.055059727 -0.035259116 -0.094924271
0.065134987 -0.034084186 -0.094918743
0.071104556 -0.031743128 -0.095273376
-0.031979416 -0.024846332 -0.09543281
-0.029295722 -0.025248529 -0.090800531
0.069446728 -0.02905659 -0.093378671
0.076308757 -0.026363518 -0.095060714
0.080864914 -0.022208668 -0.094518229
-0.032203328 -0.014970825 -0.095110424
0.07920374 -0.015375654 -0.094981007
0.081227452 -0.01471401 -0.095365696
-0.032819685 -0.0049548536 -0.095129348
0.079329424 -0.0054319105 -0.094836779
0.081571139 -0.0049797003 -0.095248006
-0.032935962 0.0051202727 -0.09516234
0.079539433 0.0051484369 -0.094810702
0.081689574 0.0046776645 -0.095105127
-0.032211117 0.014942663 -0.095152445
-0.029772997 0.019615442 -0.090227842
0.07922589 0.015073081 -0.094821841
0.081285596 0.014755814 -0.095163785
-0.031732079 0.025038693 -0.095266894
-0.029546022 0.026117742 -0.090752549
0.077640861 0.02648063 -0.094900146
0.080988541 0.02315918 -0.094704494
-0.031737514 0.033300035 -0.095146112
-0.025178021 0.037566118 -0.094720021
-0.014855472 0.038922954 -0.094903901
-0.005032877 0.038933702 -0.095000625
0.0049495767 0.038953416 -0.094968595
0.014748232 0.038975514 -0.09486001
0.024947425 0.038913943 -0.094775341
0.035023212 0.038926188 -0.094902307
0.04494074 0.037463684 -0.094929501
0.055104584 0.03728646 -0.095037244
0.065191075 0.035680111 -0.094756983
0.072405688 0.031589046 -0.09513513
-0.023938997 0.040288746 -0.096690379
-0.015409046 0.04020676 -0.095463581
-0.0045577134 0.04017118 -0.095398456
0.0045420318 0.040229477 -0.095277548
0.01440342 0.040269963 -0.095578596
0.025147766 0.040269192 -0.096506856
0.034326732 0.040229294 -0.096053146
-0.031263929 -0.032093719 -0.088065319
-0.024627298 -0.033068776 -0.086884797
-0.015003827 -0.033796452 -0.085924625
-0.0049644737 -0.033965379 -0.086065009
0.005125599 -0.033916518 -0.085913472
0.015062033 -0.03385159 -0.085896827
0.024834031 -0.033866815 -0.085785761
0.034834441 -0.033774022 -0.085820936
0.044855129 -0.033475902 -0.085792378
0.054919519 -0.033146031 -0.085597217
0.063981861 -0.03254376 -0.086513795
0.071018398 -0.030822992 -0.088709846
-0.031245369 -0.023092955 -0.086171106
-0.026834041 -0.025860615 -0.084340483
-0.015317318 -0.0288451 -0.081718951
-0.0052108816 -0.029181598 -0.081456922
0.0050580422 -0.02922513 -0.08169876
0.015268537 -0.029053401 -0.081464864
0.025776008 -0.029124429 -0.081505187
0.03456049 -0.029047618 -0.081396326
0.04507862 -0.02913779 -0.081698515
0.054974232 -0.029120909 -0.081681885
0.066093341 -0.028769966 -0.083535515
0.075126395 -0.025398394 -0.085067756
0.080362268 -0.021851683 -0.087664358
-0.032099899 -0.014959842 -0.084953755
-0.029451367 -0.018015884 -0.083324209
0.069744818 -0.012663096 -0.080634221
0.077750482 -0.015273276 -0.084021091
0.081061766 -0.014965968 -0.085224614
-0.032836355 -0.0050456007 -0.085107021
-0.029034138 -0.0070772171 -0.080105096
0.069507018 -0.0040193857 -0.081538945
0.07683669 -0.0051684282 -0.08370024
0.081182539 -0.0049366634 -0.085192427
-0.032852858 0.0051111071 -0.085335948
0.069784001 0.0031243563 -0.084266081
0.07700038 0.0047657331 -0.083948769
0.081295274 0.0045793187 -0.085101835
-0.032156024 0.014890327 -0.085017435
-0.029713839 0.018047012 -0.0830051
0.077748835 0.01477921 -0.084060214
0.081030622 0.015030675 -0.085350685
-0.03131365 0.023651259 -0.086050577
-0.027372746 0.026411492 -0.083967805
-0.015921695 0.029562056 -0.081883594
-0.0047798255 0.02907975 -0.081321314
0.0057373717 0.029604372 -0.081491493
0.014435354 0.029464792 -0.081055313
0.024584606 0.029323161 -0.081080139
0.034736082 0.029365044 -0.08073128
0.044582415 0.029527396 -0.080973469
0.055239011 0.029579023 -0.082081474
0.067230493 0.02942501 -0.082317218
0.075931117 0.025913497 -0.084764436
0.080654576 0.021999195 -0.087516092
-0.031053195 0.032773104 -0.087867305
-0.024654945 0.034171239 -0.08662723
-0.015059208 0.035528783 -0.085919678
-0.0048756967 0.035593916 -0.085931003
0.0050832168 0.035591021 -0.085829362
0.015202278 0.035530251 -0.085726805
0.024979265 0.035350863 -0.085445412
0.035081714 0.035311706 -0.085504323
0.04482054 0.034781452 -0.085255384
0.055122018 0.03465816 -0.085396327
0.064870723 0.032979868 -0.085371107
0.071923822 0.030856889 -0.08656624
-0.022002161 0.040362313 -0.089409381
-0.0066512707 0.040093768 -0.089182317
0.01498129 0.040135667 -0.088910401
0.024866462 0.04009895 -0.086611956
0.032536775 0.040306337 -0.088458121
-0.021536022 -0.031766165 -0.072644196
-0.014826301 -0.031796418 -0.073531277
-0.0049444214 -0.031862751 -0.073657729
0.0050463569 -0.031986721 -0.073588453
0.014902618 -0.031921685 -0.073342174
0.022566233 -0.031706307 -0.073284179
0.046502762 -0.030398091 -0.079559207
0.053470284 -0.030334633 -0.079449654
-0.031005975 -0.022018349 -0.074697278
-0.02574401 -0.025517756 -0.075100519
-0.015431972 -0.028728114 -0.077354327
-0.0047928807 -0.028847424 -0.077761419
0.0052161627 -0.02874591 -0.077918515
0.015324147 -0.028798146 -0.077653848
0.025847331 -0.028671382 -0.075685032
0.034973383 -0.028579602 -0.074954771
0.044869781 -0.028661927 -0.075162046
0.055035137 -0.028692428 -0.075024173
0.065366633 -0.027284697 -0.074731439
0.07243561 -0.023648232 -0.076141529
-0.033131037 -0.015749758 -0.074251093
-0.029715817 -0.018023958 -0.077799544
0.068946458 -0.015124402 -0.072909132
0.074423783 -0.015309846 -0.075303964
0.080212086 -0.013909003 -0.079524785
-0.03284828 -0.0050338297 -0.07484211
0.069452912 -0.0050748461 -0.07440313
0.072933353 -0.0049919924 -0.076228753
0.080593765 -0.0053707585 -0.079557113
-0.032889768 0.0050142026 -0.075025111
-0.029709786 0.0035017133 -0.079157859
0.069487199 0.0051658414 -0.075376444
0.073017493 0.0049013388 -0.076119497
0.081003606 0.0044491692 -0.079660498
-0.033022117 0.015347621 -0.074409582
-0.02944226 0.01847253 -0.077602133
0.022821665 0.019910991 -0.07802704
0.069554165 0.014437638 -0.073342927
0.074437626 0.015548611 -0.075490631
0.080318511 0.014957985 -0.078919485
-0.032776386 0.022160381 -0.073857874
-0.026351241 0.026397778 -0.075197577
-0.015184719 0.029296905 -0.077148743
-0.0048962971 0.02907698 -0.077226348
0.0051046046 0.029333336 -0.077043109
0.014676279 0.029398687 -0.076538749
0.026130011 0.029405005 -0.075293049
0.034991078 0.02942778 -0.074620679
0.045123968 0.029452704 -0.074639864
0.055526651 0.029474596 -0.074690372
0.06698446 0.027494296 -0.073723122
0.072842628 0.024276076 -0.075962327
-0.021908993 0.032935549 -0.073436193
-0.015056243 0.033247482 -0.074496567
-0.0050003505 0.033093728 -0.07461375
0.0048991209 0.033250302 -0.074372157
0.015118576 0.033105291 -0.074539013
0.024607152 0.031883981 -0.074501008
0.035158813 0.030881792 -0.075114742
0.045150898 0.03092544 -0.074940309
0.054944169 0.030905657 -0.074952826
0.063687153 0.030703612 -0.075565368
0.070404731 0.030336365 -0.079411924
-0.022244995 -0.031102054 -0.065190449
-0.014933363 -0.031725448 -0.064925097
-0.0048436387 -0.031668272 -0.065071218
0.0050543137 -0.031610936 -0.065043129
0.014848154 -0.031588633 -0.064915612
0.024164675 -0.031328011 -0.06467396
0.031372197 -0.03084456 -0.061258525
-0.031017523 -0.022787323 -0.064723983
-0.026691599 -0.026528591 -0.064979531
0.027944054 -0.028772272 -0.066808373
0.035196826 -0.028660752 -0.065207377
0.045243375 -0.02859205 -0.064782418
0.055518653 -0.027681582 -0.064864069
0.064040333 -0.024126273 -0.065860972
0.070800141 -0.020663245 -0.069352925
-0.040496871 -0.017354228 -0.066287838
-0.033185367 -0.01572174 -0.06551183
-0.02969848 -0.019362142 -0.063550517
0.059129685 -0.015262814 -0.061200369
0.065596811 -0.015043282 -0.064196393
0.071446665 -0.014625263 -0.068065323
-0.032930695 -0.0049846182 -0.064993158
0.059312887 -0.0042707822 -0.060609806
0.066156507 -0.0051083285 -0.063682489
0.071371451 -0.0051150518 -0.067459434
-0.032956269 0.0049661412 -0.065066241
0.058904272 0.0051172613 -0.060572453
0.065948874 0.0052299225 -0.063601479
0.071337961 0.004718333 -0.067283101
-0.040425465 0.019258361 -0.069618113
-0.033049408 0.015663195 -0.06530904
-0.029806258 0.019266471 -0.060358956
0.0586631 0.015869597 -0.061008684
0.065648533 0.015036815 -0.063926294
0.071428575 0.015055434 -0.067937128
-0.04078076 0.020908341 -0.067115605
-0.03308754 0.022282047 -0.065623425
-0.02742165 0.026298847 -0.065023594
-0.0043643415 0.029722452 -0.062374219
0.028914418 0.029453881 -0.067314863
0.035526037 0.029480832 -0.065009236
0.045405541 0.029446617 -0.065004028
0.056540124 0.028144822 -0.06343279
0.06420581 0.025107903 -0.065632284
0.071220212 0.020532636 -0.068373121
-0.023352869 0.032242637 -0.065120235
-0.014949244 0.033753179 -0.065028667
-0.0049933991 0.033757843 -0.065137506
0.0049252007 0.033702813 -0.065081842
0.015065115 0.033715811 -0.065186717
0.024808183 0.032887135 -0.065000966
0.035214242 0.030984866 -0.065013036
0.045168046 0.030897846 -0.06487076
0.054505032 0.030751083 -0.065899059
0.061514039 0.030445211 -0.067964569
-0.021990942 -0.030657601 -0.057012901
-0.014956453 -0.030788662 -0.056700997
-0.005085377 -0.030824045 -0.056633964
0.0044320379 -0.030840471 -0.056390524
0.014852704 -0.030829685 -0.056269139
0.024884049 -0.030837718 -0.056341361
0.032346137 -0.030693153 -0.055527177
-0.031750947 -0.022661453 -0.055639818
-0.026174113 -0.026532268 -0.05454215
-0.01514873 -0.028458979 -0.052176442
-0.0051559303 -0.028563563 -0.052144479
0.0047631436 -0.02846317 -0.052145727
0.014965387 -0.028713012 -0.052246258
0.025033418 -0.02864939 -0.052527901
0.035739582 -0.027925812 -0.054447707
0.045145571 -0.026149426 -0.05429738
0.054108497 -0.024091663 -0.056140348
0.060651321 -0.022305047 -0.058860183
-0.032532539 -0.014927307 -0.054607946
-0.029235438 -0.017042331 -0.051121291
0.03933287 -0.017293453 -0.050671056
0.046273615 -0.015544605 -0.051303513
0.055157844 -0.01486061 -0.054819632
0.06123982 -0.014981037 -0.058674425
-0.03326156 -0.0050323503 -0.054820713
0.039446272 -0.0061583519 -0.050428957
0.047518842 -0.0055632861 -0.051196985
0.055508427 -0.005168566 -0.054277573
0.061494134 -0.004933727 -0.058252223
-0.033383269 0.0049357419 -0.054538213
0.039140709 0.0045086145 -0.050257742
0.047282338 0.0049214209 -0.051129714
0.055598296 0.0049840976 -0.054345936
0.061473947 0.0044840756 -0.058380727
-0.032649595 0.015063705 -0.054718904
-0.029158831 0.018528027 -0.050764032
0.039180603 0.014601122 -0.051107042
0.046243414 0.015511027 -0.051379852
0.054987475 0.014978377 -0.0546504
0.061097976 0.014652712 -0.058419958
-0.031677525 0.023659047 -0.055261038
-0.026834261 0.026838608 -0.053916067
-0.015805993 0.028366828 -0.051160287
-0.0049764849 0.028350538 -0.051146921
0.0046408963 0.028516263 -0.051041856
0.014352278 0.028452752 -0.051098526
0.025032014 0.02800457 -0.051149696
0.036114514 0.028092675 -0.05274744
0.045583598 0.026653595 -0.05327576
0.054349802 0.025210498 -0.055890869
0.060866863 0.023214437 -0.059090726
-0.023557842 0.031495806 -0.056090776
-0.015022046 0.032298073 -0.055336516
-0.0049904333 0.032246683 -0.055232186
0.0051901732 0.032294199 -0.055325523
0.015013997 0.032222763 -0.055170499
0.025038917 0.032099701 -0.055341847
0.033921 0.031385064 -0.055143777
0.043995347 0.030661685 -0.057370611
0.052237552 0.030499082 -0.059071451
-0.030532397 -0.02209077 -0.048785239
-0.02400765 -0.023536941 -0.048143223
-0.015076751 -0.024307264 -0.047792409
-0.0050169085 -0.024355279 -0.047763497
0.0052079228 -0.024221873 -0.047564428
0.015020824 -0.024395665 -0.047685266
0.02460728 -0.024332454 -0.047871552
0.034603957 -0.023923554 -0.047650371
0.042803232 -0.022252928 -0.048805464
-0.031656247 -0.014364857 -0.048424959
-0.024983007 -0.01468984 -0.047117367
-0.015238539 -0.014606344 -0.044819228
-0.005192169 -0.015279317 -0.044529635
0.0050861663 -0.014848148 -0.04423485
0.01446661 -0.014406046 -0.045244515
0.024912221 -0.015292189 -0.046135262
0.034910776 -0.014874516 -0.04654517
0.044493429 -0.014814117 -0.048528086
0.050838161 -0.013254411 -0.049430069
-0.032011405 -0.0042947703 -0.047892306
-0.024716813 -0.0052380217 -0.045006424
-0.018685002 -0.0087826392 -0.042096134
0.0078218989 -0.0053982339 -0.046146981
0.016136989 -0.005600899 -0.043403819
0.02488438 -0.0050662435 -0.045517538
0.035168651 -0.0050287666 -0.045925915
0.04463904 -0.0050150948 -0.047907248
0.050906688 -0.0048965882 -0.049167067
-0.032010749 0.0045410264 -0.048057735
-0.024875261 0.0050791143 -0.044916231
-0.019050436 0.0083691115 -0.04185186
-0.0072437078 0.0012311935 -0.048020571
0.0061230436 0.0012926906 -0.04891035
0.016887929 0.0053365966 -0.043489419
0.025097484 0.0048117731 -0.045546465
0.035278983 0.0052538463 -0.045862123
0.044747211 0.0050396719 -0.047862966
0.051186051 0.0041257534 -0.049460072
-0.031672794 0.014596158 -0.048691448
-0.025031118 0.015129933 -0.047318004
-0.015540119 0.015350947 -0.044618651
-0.0051810625 0.016742943 -0.044300735
0.0052800579 0.016371051 -0.044479426
0.014672967 0.014935347 -0.045257129
0.024689786 0.015378437 -0.046355881
0.035234816 0.015143865 -0.046657547
0.044544537 0.014816971 -0.048400983
0.050875176 0.013695217 -0.049851283
-0.031005984 0.021945383 -0.04884506
-0.02422474 0.024259081 -0.048340883
-0.015010132 0.025129665 -0.048120473
-0.0048588612 0.025068698 -0.048076011
0.0051616495 0.024623193 -0.047819789
0.015263641 0.024896609 -0.047745578
0.024988269 0.024980281 -0.047808859
0.034791037 0.024854297 -0.047704529
0.044239633 0.023812687 -0.048908133
0.050338477 0.020078897 -0.049085587
-0.021124244 0.030043215 -0.048328795
-0.014673956 0.030473763 -0.048644222
-0.0065928893 0.030737536 -0.049202938
0.0047159502 0.030624446 -0.049104188
0.01508668 0.030580109 -0.048892163
0.023642587 0.030781582 -0.048939351
0.033971 0.030614819 -0.048914876
-0.020463347 -0.010445614 -0.034244325
-0.014348575 -0.012019335 -0.035097413
-0.0048861005 -0.013553227 -0.034703612
0.0049237302 -0.012614445 -0.034709204
0.011402375 -0.011276353 -0.034246035
-0.021702211 -0.0046047447 -0.035001047
-0.018468685 -0.0082253786 -0.034034722
0.0095012896 -0.0097931921 -0.032500505
0.014258911 -0.0057297875 -0.034592874
-0.022036109 0.0044374936 -0.035108987
-0.018934567 0.0082000969 -0.034449011
0.014805526 0.0052436176 -0.034804922
-0.020530077 0.011616725 -0.034563351
-0.015001787 0.013435811 -0.034921907
-0.0050421972 0.015280314 -0.034908976
0.0049779252 0.014730309 -0.034730956
0.011972668 0.01231527 -0.034734406
-0.020482978 -0.01015915 -0.024915488
-0.014365629 -0.011999013 -0.025032496
-0.0048805908 -0.013483997 -0.02490562
0.0048604859 -0.012935692 -0.025091466
0.012801319 -0.011921024 -0.024102626
-0.021942012 -0.0044726236 -0.024802275
-0.018527731 -0.0081532411 -0.024931701
0.01646515 -0.0056982921 -0.025038246
0.020858485 -0.0030305518 -0.021252397
-0.02215524 0.0046297112 -0.024819897
-0.019133696 0.0086025456 -0.025541252
0.016948141 0.0052065291 -0.025363551
0.020806868 0.0043926155 -0.021358773
-0.020872781 0.011428755 -0.024606815
-0.014834681 0.013525717 -0.024953768
-0.0051817717 0.015361077 -0.025019711
0.0050924942 0.014942593 -0.024942588
0.013274738 0.012844607 -0.02438182
-0.020484891 -0.010414723 -0.014020308
-0.014646971 -0.012390058 -0.014664868
-0.0049753622 -0.013009801 -0.014847966
0.0050092884 -0.012938545 -0.015078133
0.014666333 -0.012403981 -0.014763256
0.020843603 -0.010710625 -0.011948902
-0.022065649 -0.0045054066 -0.014861483
-0.018750565 -0.0076738279 -0.01550821
0.018564632 -0.0068273828 -0.016799241
0.022118984 -0.0047595138 -0.014118111
-0.021847565 0.0048037833 -0.015068701
-0.019293018 0.0072952993 -0.015326009
0.018881461 0.0060426062 -0.017535197
0.021997849 0.005147553 -0.014384681
-0.021005226 0.011177264 -0.014602118
-0.015006369 0.013898967 -0.014971453
-0.005013187 0.015010583 -0.014854796
0.0046482072 0.015141588 -0.015630113
0.015233093 0.013520285 -0.015220611
0.021450572 0.011972128 -0.01243976
-0.020343676 -0.010850489 -0.0057833358
-0.014868501 -0.012008115 -0.0051498138
-0.0052898903 -0.012869643 -0.0047192555
0.0050312458 -0.012768744 -0.0051218318
0.01505999 -0.012410581 -0.0051550008
0.021508766 -0.011178508 -0.0044818688
-0.021867085 -0.0042139995 -0.0052370583
-0.01890517 -0.0073063769 -0.0043240325
0.019936323 -0.0092792511 -0.0073791444
0.024092281 -0.0055601327 -0.0051505854
-0.021672333 0.0043992591 -0.0053054034
-0.019110309 0.0066992617 -0.004097044
0.024445299 0.0052822218 -0.0051597939
-0.020664712 0.011447943 -0.0061986339
-0.015365585 0.013812252 -0.0049911444
-0.0048205638 0.015069251 -0.0050963666
0.0051154704 0.015005029 -0.0049822689
0.015139175 0.014535922 -0.0048536966
0.022037625 0.012103921 -0.0044789826
-0.013667968 -0.011770672 0.0045600855
-0.0049250186 -0.012771788 0.0048474036
0.0050648246 -0.012845063 0.0050634556
0.015302715 -0.012511201 0.0048510353
0.021866437 -0.011304269 0.0048252698
-0.021169217 -0.0035472296 0.0032159588
-0.017581042 -0.0057336255 0.0054732668
0.024249315 -0.0053078462 0.0049640178
-0.021090398 0.0035811744 0.0034642087
-0.017953718 0.0053482638 0.00583285
0.025250191 0.0050711329 0.0047904146
-0.020336509 0.010943741 0.0015347004
-0.01416578 0.013254144 0.0045856321
-0.0049751229 0.015022549 0.004990526
0.0051326347 0.015078553 0.0049235588
0.015235937 0.014748964 0.0049035191
0.022716498 0.012316153 0.0050486689
-0.012045553 -0.011404207 0.014204118
-0.0050398246 -0.012832729 0.015374047
0.0049974704 -0.013018847 0.015071318
0.015123886 -0.012927898 0.015151229
0.023535006 -0.011831551 0.01653902
0.030997181 -0.010298446 0.019592244
-0.020796806 -0.002373457 0.01007086
-0.015375174 -0.0053457003 0.015205934
0.019058436 -0.0097544789 0.010875583
0.026725562 -0.0056415931 0.014398312
0.032167789 -0.0048092334 0.018048834
0.044300634 -0.0055731344 0.019511739
-0.020280197 0.0017661452 0.011105031
-0.015711823 0.0051897061 0.01544106
0.027111145 0.0056135156 0.014646007
0.032285798 0.0045206412 0.018215127
0.04450684 0.0051197205 0.019655688
-0.012410443 0.012699707 0.014304156
-0.0052310098 0.015004178 0.015067762
0.0051136329 0.015225795 0.015251691
0.014862561 0.014938437 0.015010593
0.023509642 0.012832765 0.015508236
0.030898748 0.0094532231 0.017855303
0.042294979 0.010173678 0.019905291
-0.011168457 -0.010779512 0.024947027
-0.0051527214 -0.012502288 0.025063664
0.0048716241 -0.013146237 0.024946241
0.014853064 -0.012988136 0.02510553
0.024956789 -0.012575601 0.025042541
0.032347083 -0.011437164 0.025772411
0.043749399 -0.010257403 0.026335616
-0.01368482 -0.0052897558 0.02505428
-0.009381054 -0.0094154282 0.024794606
0.027793331 -0.007063779 0.021657988
0.035738576 -0.006921039 0.023844156
0.045098022 -0.0058806981 0.024691524
-0.013979725 0.0050073904 0.025107846
-0.0098225232 0.0094002094 0.023092892
0.028818881 0.0092759551 0.02058568
0.035119504 0.0055883024 0.022182722
0.045355875 0.005184745 0.024265574
0.050080031 0.0034121871 0.023156092
-0.011505374 0.011671457 0.024951842
-0.004884372 0.014371882 0.024259215
0.0050468454 0.015273317 0.024583895
0.014487288 0.01496206 0.023902666
0.024885338 0.014487753 0.024156796
0.033362929 0.011830857 0.024822382
0.043076072 0.010707028 0.024724277
-0.011598383 -0.010950453 0.03546242
-0.0051708752 -0.01247595 0.034954518
0.0051436992 -0.012957465 0.034987092
0.015039518 -0.012996095 0.034925044
0.024881063 -0.012927881 0.034776814
0.03302478 -0.011688352 0.035703387
0.043069363 -0.010198886 0.035857581
-0.014067945 -0.0053167818 0.035185762
-0.0094599947 -0.0095433891 0.033338346
0.029889546 -0.0091160238 0.033024609
0.035844397 -0.0092297327 0.034524862
0.045464613 -0.0064027654 0.035101905
0.050903697 -0.0051222951 0.038785871
-0.014666126 0.0051169302 0.03512102
-0.0093825236 0.0095729828 0.030703336
0.046885349 0.0051844297 0.035235722
0.0508691 0.0049187182 0.039032839
-0.011621448 0.011852085 0.034740712
-0.0053007831 0.014116443 0.034137852
0.0050274585 0.014843356 0.034164608
0.015101496 0.014885326 0.034089569
0.025090108 0.014751433 0.034248576
0.034015682 0.012731491 0.034536365
0.04388494 0.011137703 0.034425337
0.051272806 0.011201257 0.038733643
-0.020676821 -0.010064125 0.047919124
-0.013244663 -0.011494428 0.046002027
-0.0050565251 -0.012745981 0.044865627
0.004943063 -0.012861657 0.045021929
0.015087744 -0.012977983 0.044960473
0.024884198 -0.013269703 0.045248814
0.034576483 -0.013032093 0.045135234
0.044795014 -0.01265558 0.046101443
0.053206991 -0.01187071 0.047367688
-0.050287068 -0.0026808381 0.049930844
-0.04352529 -0.0034796332 0.048260875
-0.034417752 -0.0041179676 0.047890723
-0.023744244 -0.0045041204 0.04714692
-0.016361736 -0.006011419 0.043655604
0.036726821 -0.0090923645 0.042136546
0.047203202 -0.0072270487 0.042484444
0.054898135 -0.0053340723 0.044690449
0.059609044 -0.0039624744 0.046266582
-0.050783023 0.00031876564 0.049285725
-0.043842319 0.0036650009 0.048233353
-0.034360103 0.0042300043 0.0473371
-0.024110107 0.0042881076 0.046515353
-0.016775912 0.005413617 0.041738853
0.048704974 0.0054324926 0.041962225
0.054618496 0.005075396 0.043752991
0.060081311 0.0045076739 0.046207514
-0.032228786 0.010581929 0.049905896
-0.022818694 0.011193001 0.048801467
-0.013899717 0.012632927 0.043814123
-0.0045589698 0.014747687 0.04428735
0.0048368168 0.015116743 0.043763757
0.015307019 0.015007359 0.043876193
0.025045885 0.0153934 0.043982401
0.034484964 0.014552723 0.043120511
0.044851523 0.01344274 0.044030424
0.053112045 0.01179055 0.04403038
0.061091721 0.010264337 0.047577918
-0.051145144 -0.010574276 0.057443053
-0.044384658 -0.011399697 0.056609094
-0.035028923 -0.011694651 0.056191549
-0.0247306 -0.011942538 0.055814579
-0.015032797 -0.012588557 0.054663561
-0.0047965487 -0.012920282 0.054613624
0.0047918521 -0.012824197 0.054778911
0.015045817 -0.013482152 0.054797277
0.025060564 -0.015699688 0.054676116
0.034777995 -0.014384556 0.054722235
0.045031995 -0.012942009 0.054999612
0.054249395 -0.012050587 0.054698668
-0.071095601 -0.0014484141 0.059636265
-0.069082841 -0.0027278876 0.059584625
-0.052097961 -0.0043162005 0.055312194
-0.044845462 -0.0065399772 0.051967524
-0.034203112 -0.0070334533 0.05119637
-0.025473451 -0.0079244459 0.050934363
-0.018571693 -0.0093775792 0.050851714
0.058742989 -0.0068651428 0.054365382
0.061429173 -0.0047562998 0.055655573
-0.071322769 0.0043707648 0.059599139
-0.069236562 0.0032813363 0.059879616
-0.052933265 0.004658428 0.055724815
-0.045065772 0.006122001 0.049642578
-0.033142049 0.0064983256 0.049311906
-0.024146851 0.0072116894 0.047371492
-0.019986928 0.0098891556 0.050822884
0.059170011 0.0057955873 0.053983398
0.061576333 0.0048941588 0.055216078
-0.051347882 0.010705121 0.057422645
-0.043475535 0.013051547 0.053444121
-0.034792412 0.013459823 0.053505577
-0.024183767 0.013664906 0.053412765
-0.014232973 0.014780298 0.052791629
-0.0048125996 0.015144503 0.053890508
0.0044913031 0.015179753 0.05335518
0.015570354 0.015457098 0.05362542
0.024369277 0.017418982 0.053214077
0.034504913 0.016245741 0.052556675
0.045078591 0.014903953 0.054110549
0.054615982 0.013342535 0.053756323
0.060621027 0.011262908 0.055179752
-0.053786214 -0.020580525 0.06964656
-0.045896936 -0.020468762 0.06935703
-0.034310471 -0.020557363 0.069378152
-0.02202067 -0.021135533 0.068107627
-0.014994904 -0.021879703 0.066949368
-0.0048586577 -0.022141546 0.067047425
0.0024273628 -0.021720525 0.067282878
0.048444964 -0.02021879 0.069671959
0.052972984 -0.020487826 0.06959559
0.060253799 -0.020157695 0.069291323
-0.071415402 -0.012175605 0.068587251
-0.064288333 -0.013838593 0.066961348
-0.054763231 -0.014609124 0.065811113
-0.044950183 -0.014596115 0.065200724
-0.034898765 -0.014850207 0.065251797
-0.025012296 -0.01517978 0.065119207
-0.015204328 -0.015089306 0.063517451
-0.0050644157 -0.014917867 0.063684702
0.0049565732 -0.014108488 0.064435199
0.015012487 -0.01331062 0.065019898
0.024966668 -0.01334149 0.064907879
0.034841064 -0.013339423 0.064753078
0.045110237 -0.01407355 0.065291531
0.054979049 -0.013920189 0.065402247
0.064513065 -0.013896303 0.067027137
0.073144227 -0.013366323 0.066447914
0.082630008 -0.012039445 0.067303851
0.094229005 -0.011744599 0.068955235
0.1014148 -0.010409027 0.06942451
0.11457902 -0.010335049 0.069641463
0.1229319 -0.010373354 0.069834277
-0.073135018 -0.0039296173 0.065428838
-0.064408287 -0.0049716802 0.062558264
-0.055326328 -0.0060040588 0.061632562
-0.049491122 -0.008822374 0.061588936
0.058122121 -0.0083470764 0.063233882
0.064502284 -0.0052199219 0.063668877
0.07413815 -0.004466489 0.064112999
0.084016636 -0.004560519 0.065391943
0.094059058 -0.0046042167 0.065764003
0.10405493 -0.0045786733 0.0673398
0.1152809 -0.0038833655 0.068746485
0.12503807 -0.0038579283 0.068687186
0.13187189 -0.0021784473 0.069034211
-0.072773524 0.0041034739 0.064145304
-0.063925162 0.0055472874 0.061691981
-0.054234017 0.0060712923 0.058930662
-0.049535301 0.0094847977 0.061571322
-0.0059469938 0.0023401976 0.069791123
0.058781169 0.0056868615 0.062318567
0.063845187 0.0048636962 0.061365254
0.073702171 0.0046232264 0.062229194
0.083812699 0.0044934801 0.064199127
0.093577921 0.0042223209 0.065187506
0.10210706 0.0034452733 0.065053537
0.11259384 0.0036572476 0.066354863
0.12193492 0.0036979453 0.066242352
0.13213852 0.0033451787 0.069226429
-0.072113946 0.012447576 0.068787955
-0.063958362 0.01495262 0.064823575
-0.052085035 0.014994065 0.060990158
-0.043954518 0.015582702 0.062585697
-0.034004848 0.015805544 0.062349096
-0.023326902 0.015924271 0.061056048
-0.014210953 0.015898196 0.060555667
-0.003625232 0.015387921 0.060175523
0.0058918702 0.015079265 0.060687385
0.015571475 0.014941782 0.063412368
0.024986355 0.015457581 0.065070473
0.03509618 0.015060659 0.06427218
0.04465799 0.015115679 0.063331485
0.05436264 0.01457745 0.062989473
0.063788682 0.013174914 0.06190921
0.0735071 0.013701043 0.064827979
0.082856528 0.012339692 0.064651005
0.094884276 0.012424862 0.068621643
0.10399 0.011171049 0.069039792
0.11478777 0.011349651 0.069387399
0.12509632 0.010980291 0.069218762
-0.063644089 0.021031549 0.069122158
-0.054907721 0.021097057 0.068627186
-0.044812579 0.02115085 0.068788275
-0.035174321 0.021268118 0.068755679
-0.023283223 0.021973517 0.068224885
-0.0144988 0.022900622 0.065108106
-0.0044845655 0.02293025 0.065328442
0.0028210504 0.022204496 0.064196467
0.047212448 0.020948479 0.068608001
0.054668434 0.02155957 0.069123179
0.063853376 0.021079214 0.06929718
0.073349781 0.020513033 0.069160782
-0.072264291 -0.021199889 0.077128053
-0.06439539 -0.022592237 0.075642489
-0.054913174 -0.023531942 0.074886471
-0.044945057 -0.023997264 0.075089216
-0.034850352 -0.024109788 0.075088091
-0.024886983 -0.023935722 0.07485877
-0.015109186 -0.024295881 0.074752815
-0.0050719944 -0.024105109 0.074960515
0.0047590225 -0.023945544 0.075264126
0.014833277 -0.023903599 0.075440474
0.025116393 -0.023727842 0.075645909
0.034981992 -0.023543762 0.075667381
0.045119468 -0.023269666 0.075571097
0.054878835 -0.022906052 0.07560882
0.064366281 -0.022263858 0.076033406
0.074240983 -0.021714522 0.077021822
0.083392248 -0.021255981 0.078106843
0.093468785 -0.020750413 0.078996085
-0.081059955 -0.012831881 0.077573925
-0.074930914 -0.015331143 0.074422888
-0.065269232 -0.01782717 0.072038524
-0.055298794 -0.019042164 0.071245976
-0.045105271 -0.018912924 0.07120844
-0.03459001 -0.018797582 0.070922479
-0.025325993 -0.019008342 0.070999645
-0.019757926 -0.019026063 0.070909619
-0.0036086659 -0.016817274 0.071341112
0.0061790366 -0.015986633 0.072537176
0.014983255 -0.015807528 0.072657034
0.025049074 -0.015652813 0.072456151
0.034969062 -0.015783528 0.072479092
0.043998223 -0.01695518 0.072029546
0.055118438 -0.01862935 0.071455561
0.065653428 -0.018429056 0.072307743
0.075301081 -0.017834682 0.072827376
0.084958442 -0.01619711 0.073645525
0.094658718 -0.015510059 0.074177124
0.10488467 -0.014272374 0.07567291
0.11504584 -0.014126599 0.07574825
0.12504452 -0.014001507 0.07579387
0.13343441 -0.01256704 0.077305853
0.14193964 -0.011304912 0.078856908
-0.082012907 -0.004765329 0.076537587
-0.076312795 -0.005413474 0.07111273
0.087969668 -0.0087623391 0.070477426
0.096184663 -0.0078351302 0.070833854
0.1024898 -0.0052908771 0.068306558
0.11108589 -0.0055434536 0.067917176
0.1227756 -0.0053637992 0.069174208
0.13425978 -0.0049416535 0.073028803
0.142886 -0.0046969745 0.076258011
0.15210055 -0.0013992786 0.07982716
-0.082089759 0.00485024 0.076413535
-0.077234678 0.0052584824 0.071622446
-0.068683289 0.0066285729 0.070251137
0.087666743 0.0090578264 0.070491821
0.097097784 0.0071551031 0.070894718
0.10460745 0.0048813904 0.06917192
0.11405385 0.0052171703 0.069393106
0.12402259 0.0052315271 0.06968753
0.13360885 0.0045830295 0.07194677
0.14208128 0.0042156093 0.074310698
0.15475124 0.0032470326 0.079706743
-0.081089839 0.01283847 0.077402659
-0.073452406 0.015533169 0.071550965
-0.064662613 0.017469747 0.069430463
-0.0554257 0.018839804 0.07054501
-0.04435828 0.019270105 0.070867956
-0.034461141 0.019070012 0.070840314
-0.024478974 0.01889782 0.07080768
-0.002468606 0.0184942 0.073371843
0.0070502721 0.015221397 0.066280276
0.014803338 0.015420076 0.067296699
0.025605882 0.016539412 0.066503018
0.033697285 0.016567001 0.063815854
0.042312652 0.017416907 0.06721466
0.055022348 0.018882297 0.07087262
0.065480888 0.018989723 0.071175314
0.075823061 0.018485161 0.071955308
0.084556744 0.01663056 0.071371578
0.092537411 0.015283755 0.068912499
0.10329562 0.014615379 0.071799479
0.11337234 0.015410529 0.072015405
0.12331584 0.015357522 0.072147071
0.13156736 0.013787749 0.073283248
0.13890263 0.012793093 0.074488014
-0.072673939 0.021937331 0.076681398
-0.063434765 0.023421379 0.072399259
-0.053007398 0.024071585 0.070619665
-0.043546304 0.024783688 0.071575835
-0.033653971 0.024653338 0.071500286
-0.023527795 0.024390239 0.069963068
-0.014510447 0.025748191 0.072472923
-0.0047167065 0.025471853 0.072769411
0.0050544832 0.025384333 0.07135804
0.014763696 0.02566514 0.072907045
0.024690049 0.025507336 0.072871633
0.035154548 0.025063895 0.071793996
0.045032326 0.024605619 0.071946464
0.054692768 0.024150809 0.071242489
0.06320487 0.023267856 0.069752716
0.073898062 0.022921773 0.073005125
0.083644629 0.022398684 0.073569909
0.093956694 0.021276509 0.073839612
0.099935472 0.021608854 0.065747291
0.1151331 0.020588085 0.07898286
0.1237409 0.020853546 0.078917161
-0.073645331 -0.02179431 0.085026748
-0.064874709 -0.024303688 0.084919751
-0.055062748 -0.024594942 0.085020185
-0.044963021 -0.025798788 0.084884174
-0.034977257 -0.025791243 0.08501967
-0.02497253 -0.025684258 0.084784351
-0.014916076 -0.025637804 0.084928833
-0.0049540768 -0.025095329 0.085004479
0.0048459307 -0.025536757 0.084843092
0.014998494 -0.025608709 0.085072778
0.025237555 -0.025308192 0.084969357
0.035027061 -0.025489185 0.085037559
0.044936094 -0.026408736 0.085150845
0.055134866 -0.026506158 0.084684692
0.065054625 -0.025933204 0.085037053
0.075040892 -0.024943212 0.084881939
0.084859759 -0.022820311 0.085052475
0.094941087 -0.021851745 0.085411139
0.10453713 -0.020635612 0.086913586
0.1150821 -0.020559942 0.087316096
0.12411923 -0.020521747 0.08730986
0.13056058 -0.020393774 0.088266969
-0.081827767 -0.01372907 0.085438736
-0.077489369 -0.017468393 0.084529065
-0.065970436 -0.01617619 0.085587442
-0.0019994387 -0.018036216 0.087266773
0.0002970174 -0.017565072 0.088664621
0.086650506 -0.019553194 0.080704026
0.097120441 -0.019170277 0.082023516
0.10527851 -0.018834513 0.08341001
0.11480461 -0.018877074 0.0836045
0.1252912 -0.018772356 0.083714023
0.13506767 -0.015921853 0.084726527
0.14395942 -0.012594739 0.085429691
-0.084069863 -0.0050997101 0.085076526
0.13973224 -0.00078012049 0.085537285
0.1464159 -0.0060481289 0.083280571
0.15290813 -0.0046085911 0.08499679
0.16203377 -0.0026358608 0.085540012
0.17270422 -0.0014321395 0.084741004
0.18281913 -0.0015535329 0.085547812
0.19224337 -0.0016574261 0.085766412
0.20128772 -0.0015292076 0.085024618
0.21039124 -0.0013819073 0.084526613
0.21920545 -0.0011324931 0.081922524
0.23005302 -0.0012968414 0.083414488
0.23671786 -0.0010570567 0.082794987
-0.084189862 0.0050396868 0.085063614
-0.079832472 0.0090476274 0.080577314
0.14704822 0.0064701242 0.083630815
0.15255895 0.0049093971 0.082944423
0.16305514 0.0036590707 0.085158519
0.17351773 0.0035082838 0.086098745
0.18314467 0.0034911765 0.08603166
0.19317518 0.0033629027 0.085966617
0.2026985 0.0036764485 0.084596187
0.21291873 0.0038542862 0.085159004
0.22186527 0.003790329 0.084752604
0.23062998 0.0038800875 0.08423195
0.23916769 0.0037779645 0.084119566
-0.082288057 0.014339756 0.085479207
-0.07669796 0.017394906 0.082237802
-0.065076999 0.015667152 0.085037179
-0.0012070322 0.019265428 0.086463079
0.096228585 0.019960731 0.081028074
0.10490765 0.019282844 0.081563793
0.11465912 0.019240798 0.081407055
0.12592269 0.019138176 0.081607014
0.13517672 0.01706248 0.083173484
0.14299656 0.013589456 0.082495064
0.15349694 0.010499485 0.08894179
-0.080723688 0.020519745 0.088489667
-0.073754616 0.022649869 0.083614543
-0.062867023 0.02592114 0.081842415
-0.053407826 0.026492886 0.082726136
-0.04460647 0.028162425 0.083556555
-0.034612812 0.028201817 0.083366364
-0.024889177 0.028150883 0.082861423
-0.014378613 0.028032986 0.083559528
-0.0052720793 0.026903234 0.083080776
0.0049210847 0.027044987 0.083236009
0.014663608 0.027739566 0.083496049
0.024857666 0.027626332 0.083128706
0.034707643 0.027274122 0.082487471
0.045473818 0.02782163 0.081866883
0.054847121 0.028309114 0.082794257
0.064623065 0.027682159 0.083510101
0.073734291 0.026115745 0.081125453
0.084222041 0.024716271 0.082855567
0.095090054 0.023612691 0.083631054
0.10346738 0.022146342 0.081377603
0.11344457 0.021970106 0.082269013
0.12309743 0.021856043 0.082561605
0.12685709 0.021188723 0.080324419
0.037275348 0.029470108 0.08282543
0.044046603 0.03025162 0.085701033
0.053431395 0.030315932 0.087665014
0.062742159 0.030229501 0.088104919
-0.073618874 -0.021779165 0.094602376
-0.064823352 -0.024244355 0.095012471
-0.054905452 -0.024582367 0.095047697
-0.045111645 -0.025867952 0.094973259
-0.034924958 -0.025918258 0.094753429
-0.024867684 -0.025855308 0.094844341
-0.015093931 -0.02583722 0.094914809
-0.0049217585 -0.025113905 0.094814502
0.0050153448 -0.025531055 0.094871029
0.014862541 -0.025746111 0.094949588
0.025010016 -0.025486067 0.094959788
0.035185505 -0.026378591 0.094915614
0.044960316 -0.027330548 0.095124736
0.05501679 -0.026889831 0.095047869
0.065063067 -0.026051516 0.094983935
0.074922681 -0.025249301 0.095124051
0.084792167 -0.023461713 0.095024414
0.094959706 -0.022193922 0.095050558
0.1049469 -0.020739358 0.093854941
0.11514005 -0.020608352 0.093939871
0.12433942 -0.020605875 0.093609057
0.13092647 -0.020441346 0.093252145
-0.082244344 -0.013968471 0.094475456
-0.077292047 -0.017832832 0.095477849
-0.06569007 -0.017326266 0.094474547
-0.0019474681 -0.018253189 0.094850294
0.0011941337 -0.017460013 0.094784103
0.082061172 -0.019400083 0.099959075
0.098688267 -0.019419884 0.097899698
0.10488948 -0.019375194 0.097080357
0.11498731 -0.019229878 0.097299889
0.12564754 -0.019221146 0.096503146
0.1350539 -0.016738638 0.094935864
0.14406592 -0.013252304 0.09492933
-0.084282361 -0.0050835088 0.0950054
0.13966596 -0.0032614074 0.095534943
0.14743243 -0.0066565829 0.096091516
0.15447222 -0.0046557775 0.095050424
0.16502893 -0.0025430054 0.093724988
0.17514202 -0.0027064155 0.093665294
0.1849563 -0.0026302249 0.093536586
0.19471426 -0.0027222177 0.093545251
0.20486885 -0.0026651113 0.093697533
0.2148419 -0.0025615527 0.093568772
0.22496389 -0.0025896779 0.093738705
0.23495699 -0.0025580435 0.093933962
0.24429412 -0.0023617437 0.093202084
-0.084606566 0.0049365014 0.095071025
0.13988733 0.0032138228 0.098206729
0.14731173 0.0068216431 0.096757472
0.15455711 0.0053263656 0.095460787
0.16442841 0.0040053958 0.092700563
0.17347403 0.004030853 0.092169784
0.18372662 0.0040209247 0.092703171
0.19343515 0.0040178914 0.092533499
0.20369501 0.0040402636 0.092250325
0.21211389 0.0039772345 0.091360793
0.22246899 0.003893892 0.091924578
0.2317784 0.0038901833 0.091388226
0.24200439 0.0031742852 0.091441102
-0.082603864 0.01439827 0.09436468
-0.078114919 0.018198818 0.096035749
-0.067107014 0.016789585 0.09223526
-0.059789121 0.019280255 0.094864443
-0.0015709081 0.018958893 0.095725134
0.0015705368 0.018853515 0.09488713
0.098278344 0.019170403 0.099492654
0.10594781 0.019271722 0.09926419
0.1154296 0.019301761 0.099128924
0.12668489 0.019132936 0.098164447
0.13551132 0.017710144 0.094753414
0.14377625 0.014270346 0.094147347
0.1474081 0.0096643306 0.08365234
-0.080911018 0.020321041 0.092688553
-0.073777243 0.023003507 0.093853444
-0.064607501 0.025940282 0.094368055
-0.054685991 0.026537407 0.094233803
-0.044321023 0.027897283 0.093710087
-0.034219909 0.027662179 0.092474803
-0.024744855 0.027908901 0.093531393
-0.01473187 0.027813928 0.093451805
-0.0057832059 0.026924778 0.093351461
0.005629038 0.027311062 0.093290053
0.015388971 0.027547004 0.093438432
0.025288945 0.027519269 0.093407378
0.034878507 0.027767712 0.09369573
0.045199495 0.028943615 0.096444972
0.05538046 0.028819669 0.09540689
0.064900219 0.027751351 0.094407327
0.074637987 0.026455041 0.093439855
0.08397454 0.024887834 0.093618177
0.094905905 0.023816094 0.093833469
0.10524528 0.022217825 0.094979651
0.11523835 0.022192132 0.094879121
0.12520573 0.021950819 0.094917618
0.13193098 0.020869073 0.093380816
0.037325006 0.030758943 0.092666306
0.044436999 0.030639179 0.091137938
0.049715597 0.027891027 0.083181702
0.060050361 0.014881629 0.038798545
-0.072246447 -0.021187779 0.10268242
-0.064217776 -0.022877496 0.10483473
-0.054983992 -0.023678651 0.10545854
-0.044963337 -0.024315473 0.10557552
-0.035018567 -0.024384269 0.10531247
-0.02517529 -0.024532421 0.1052837
-0.01511957 -0.024829077 0.10521858
-0.004889023 -0.024627542 0.10513404
0.0051052808 -0.024333149 0.10531781
0.015111082 -0.02443138 0.10523319
0.025087552 -0.024230462 0.10543109
0.035206925 -0.023911677 0.10510317
0.045056053 -0.023934647 0.10501222
0.054872576 -0.023706933 0.10498703
0.064661644 -0.02317482 0.10416438
0.074742995 -0.022554576 0.10357445
0.083943129 -0.021497836 0.10287976
0.094319828 -0.020898379 0.10178338
0.10088575 -0.021265686 0.10288556
0.12462594 -0.020121992 0.1000784
-0.081225671 -0.012337542 0.1023828
-0.07565961 -0.01567409 0.10556497
-0.066778526 -0.017944815 0.10681511
-0.054998051 -0.019558931 0.10949069
-0.045633636 -0.019553203 0.10946957
-0.036165502 -0.019438893 0.10955219
-0.027332459 -0.019717628 0.10959943
-0.00098946318 -0.019440815 0.10490407
0.0064248708 -0.017452247 0.10834476
0.01503069 -0.017095942 0.10818815
0.025082931 -0.016910039 0.1082508
0.03266095 -0.017494988 0.10832272
0.043673374 -0.019599611 0.10924906
0.055597465 -0.019204669 0.1094825
0.065805659 -0.018789787 0.10854859
0.075211227 -0.01840345 0.1078358
0.085735768 -0.017327843 0.10687459
0.095333315 -0.016746992 0.10614633
0.10495444 -0.015324945 0.10527112
0.11493926 -0.015223184 0.1052672
0.12505683 -0.015125951 0.10513803
0.13442707 -0.013279244 0.10344832
0.14285801 -0.011221749 0.10167169
-0.081948444 -0.0049108616 0.10420036
-0.078224868 -0.0059543583 0.10843379
0.099220023 -0.0092025455 0.10968535
0.10549754 -0.0082189888 0.10936281
0.11514079 -0.0083768731 0.1092841
0.12578005 -0.0079063298 0.10927995
0.13549015 -0.0055154725 0.10756993
0.14425825 -0.004783609 0.10394781
0.15244606 -0.0016102344 0.10073639
-0.081951745 0.0047533545 0.1041906
-0.078508504 0.0052386695 0.10823126
0.099365063 0.0068272352 0.10984465
0.10563867 0.0080566667 0.1094275
0.11509129 0.0078400159 0.1093741
0.126055 0.0081781866 0.10918339
0.13593951 0.0053826296 0.10784831
0.14437637 0.0047058547 0.10436984
0.15319233 0.0031029428 0.10066564
-0.081151031 0.012633503 0.10298412
-0.076464221 0.01582011 0.10608941
-0.066246465 0.017458217 0.10705837
-0.053046595 0.019442499 0.10919417
-0.042957719 0.019576132 0.10907957
-0.035167471 0.019447803 0.10956681
0.0063818558 0.017885948 0.10805878
0.015456095 0.017423829 0.10816626
0.025006885 0.01744147 0.10815139
0.032751821 0.017536594 0.10832942
0.04380165 0.019091666 0.10979761
0.054784872 0.019584816 0.1095079
0.06616348 0.019300241 0.10877906
0.07604713 0.018970938 0.10861006
0.08568082 0.017749311 0.10777828
0.095541328 0.017009504 0.10725961
0.10527033 0.015919447 0.10594809
0.11510682 0.015938489 0.10595136
0.12522836 0.01579533 0.10587808
0.13442013 0.013978014 0.10388984
0.14325342 0.011739929 0.1022265
-0.072914697 0.021838864 0.10368176
-0.064307205 0.024022875 0.10485683
-0.054646797 0.025353093 0.1050854
-0.045072157 0.026028544 0.10555834
-0.035132717 0.026073413 0.10563305
-0.025121449 0.026264742 0.105543
-0.015158922 0.026846282 0.10492764
-0.0048180721 0.026266901 0.10367887
0.0052353265 0.026075572 0.10532413
0.01499406 0.025693107 0.10559356
0.024870414 0.025604509 0.10559893
0.034899283 0.02573498 0.10549606
0.045094635 0.025980338 0.1055285
0.055104095 0.025088795 0.10540094
0.064775884 0.024300491 0.1048844
0.07488744 0.023716168 0.10409857
0.084176399 0.022434354 0.1036914
0.094658002 0.021841863 0.10276875
0.10227748 0.019731889 0.092305467
0.11216979 0.019810148 0.093873493
0.11874956 0.019314989 0.089993551
0.13099778 0.020477043 0.10069253
-0.06321089 -0.02103178 0.11077222
-0.054860041 -0.021113055 0.11094874
-0.044792131 -0.02136882 0.11092758
-0.034380067 -0.021519495 0.11070609
-0.022697637 -0.021465044 0.11260762
-0.014922836 -0.022285603 0.1138753
-0.005282355 -0.022230988 0.11367494
0.0025393548 -0.021801626 0.11319076
0.015495085 -0.022627557 0.1102625
0.024820291 -0.022541655 0.11031566
0.036255725 -0.021235034 0.1107827
0.045377258 -0.020748124 0.11115858
0.054224353 -0.020807708 0.11097174
0.061420262 -0.020465676 0.11030781
-0.072659969 -0.012941589 0.1114335
-0.064684696 -0.01474882 0.11322574
-0.054972537 -0.014950455 0.11459291
-0.045034744 -0.015340347 0.11444452
-0.035097327 -0.015096485 0.1146567
-0.025071755 -0.015262828 0.11481523
-0.015085527 -0.015174865 0.11666922
-0.0050673974 -0.015305808 0.11651774
0.0046853079 -0.013915583 0.1152095
0.015329808 -0.013052757 0.11461809
0.025043936 -0.01285626 0.11487751
0.035476875 -0.014633136 0.11453541
0.045068726 -0.015175004 0.11472868
0.05508808 -0.015021604 0.11446252
0.064864278 -0.014766371 0.11390398
0.074833408 -0.014270682 0.11313788
0.08410579 -0.013174806 0.1121089
0.094692662 -0.012162643 0.11150326
0.10459148 -0.010942037 0.11086741
0.11516282 -0.010851427 0.11064914
0.12500827 -0.01113631 0.11054486
0.13195646 -0.010548055 0.11037491
-0.074058652 -0.0044959341 0.11458424
-0.065265849 -0.0053705098 0.11717475
-0.056144342 -0.005866772 0.1183196
-0.045050856 -0.0085317306 0.11809526
-0.034531739 -0.0078780651 0.11836234
-0.024916813 -0.0066879182 0.11849145
-0.015047936 -0.0062880744 0.11861668
-0.0053867423 -0.0083205672 0.11842103
0.0049324119 -0.0086774202 0.1184341
0.015774099 -0.0075123706 0.11824401
0.025211569 -0.0055403695 0.11851469
0.035016563 -0.0056434539 0.11840142
0.044788748 -0.0054734964 0.11849461
0.054696307 -0.0056368494 0.11818697
0.064916074 -0.005144157 0.11735699
0.07493452 -0.0048505454 0.11586667
0.084893055 -0.0053301807 0.11456436
0.095137425 -0.0050670905 0.11375289
0.10500368 -0.0048036147 0.11205789
0.11488689 -0.0046952497 0.11201571
0.12485591 -0.0045968369 0.11191633
0.13204826 -0.0031960153 0.11122241
-0.080327705 0.00038650632 0.11056674
-0.074261591 0.0044843145 0.11473226
-0.065711699 0.0053227767 0.11704087
-0.056435104 0.0060153306 0.11844951
-0.045073908 0.0090949964 0.11882246
-0.034574214 0.006502152 0.11882892
-0.024927877 0.0052961921 0.11852518
-0.015578527 0.005326909 0.1184393
-0.0048116464 0.0086083282 0.11856331
0.0045261853 0.0092763212 0.11849318
0.01698878 0.0071620755 0.11869472
0.025151465 0.0053412546 0.11865348
0.035019785 0.0053744325 0.11860888
0.044984248 0.005426568 0.11863122
0.054887582 0.0053271381 0.11841692
0.064851865 0.0051065744 0.11762475
0.075087965 0.0048297066 0.11673667
0.084716156 0.0048997286 0.11507514
0.09525758 0.0051390412 0.11390217
0.10518735 0.0049643503 0.11211725
0.11489492 0.0048621721 0.11210543
0.12492788 0.0048574191 0.11192209
0.13215163 0.0038619575 0.11101424
-0.072741807 0.01357671 0.11123621
-0.064899437 0.014895641 0.11380759
-0.054955993 0.015448846 0.11512516
-0.044950586 0.015259667 0.11529788
-0.034979515 0.01519897 0.1154241
-0.025156491 0.015230601 0.11552189
-0.015176438 0.01481454 0.11647268
-0.0051120543 0.01507534 0.11636753
0.0047147274 0.014658605 0.11568809
0.015037654 0.013889508 0.11542648
0.025059568 0.01389514 0.11539826
0.03515793 0.014817153 0.11531582
0.044994719 0.015185939 0.11546204
0.054924242 0.015226122 0.11509926
0.064881444 0.015192606 0.11425053
0.0750046 0.015206479 0.11324873
0.084432349 0.013628052 0.11254638
0.09487626 0.012911864 0.11177158
0.10514432 0.011567916 0.11088888
0.11515643 0.011566482 0.11082362
0.12482003 0.011736414 0.11071267
-0.064011201 0.021008158 0.11103509
-0.054812677 0.021454817 0.11130216
-0.045187593 0.02174487 0.1112356
-0.035036482 0.021736806 0.11137692
-0.023386866 0.022368953 0.11269497
-0.015163733 0.023124367 0.1136994
-0.0049880212 0.022867138 0.11245625
0.0022073027 0.022936931 0.112391
0.014369476 0.023491936 0.1102666
0.036974709 0.021812927 0.11133291
0.045447778 0.021950861 0.11139458
0.054824129 0.02175791 0.11104397
0.064910062 0.021069679 0.11107355
0.072829098 0.020500932 0.11094861
0.083350107 0.020283408 0.11043955
-0.071667545 -0.0028606565 0.12084173
-0.062711589 -0.0029729854 0.12046241
-0.053281251 -0.0037170842 0.12274923
