# .PCD v0.7 - Point Cloud Data file format
VERSION 0.7
FIELDS x y z
SIZE 4 4 4
TYPE F F F
COUNT 1 1 1
WIDTH 1269
HEIGHT 1
VIEWPOINT 0 0 0 1 0 0 0
POINTS 1269
DATA ascii
-0.015519875 0.040665697 -0.11100716
-0.0052583087 0.040689502 -0.11102642
0.0049350769 0.040728275 -0.1106967
0.010808825 0.040678553 -0.1107375
-0.082097359 -0.040164955 -0.10463664
-0.075027749 -0.040146068 -0.10418335
-0.064913392 -0.040120535 -0.10408038
-0.05498809 -0.040120926 -0.10445439
-0.044954222 -0.040125903 -0.104714
-0.034728147 -0.040113024 -0.10471874
-0.025021464 -0.040111735 -0.10465022
-0.015012079 -0.040123519 -0.10420323
-0.0050465344 -0.040114745 -0.10402362
0.0047438298 -0.040129691 -0.10406974
0.011557004 -0.040166404 -0.10418646
-0.082600802 -0.035498425 -0.10505682
-0.075047575 -0.037054475 -0.10640308
-0.064981855 -0.037071675 -0.10645234
-0.054988887 -0.037163425 -0.10640121
-0.044972062 -0.037077725 -0.10650388
-0.03495862 -0.037136994 -0.10641184
-0.024992669 -0.037046645 -0.10648049
-0.014979478 -0.037059836 -0.10646787
-0.0050305752 -0.036996536 -0.10642304
0.0051480439 -0.036819216 -0.10632475
0.012041608 -0.035516113 -0.1050512
-0.082799062 -0.025040507 -0.10527533
-0.074887849 -0.02494357 -0.10869808
-0.064905107 -0.024927592 -0.10871731
-0.054951582 -0.025040029 -0.10867868
-0.044878878 -0.025049739 -0.10868628
-0.034767546 -0.025040125 -0.10863543
-0.024807427 -0.025118714 -0.10864178
-0.01498484 -0.02491938 -0.10860543
-0.0049600904 -0.025037233 -0.10861196
0.0053666346 -0.024931753 -0.10823771
0.012109129 -0.025042757 -0.10505659
-0.082776219 -0.014978799 -0.10537979
-0.074924067 -0.015057242 -0.10871879
-0.065005958 -0.014969171 -0.10869118
-0.054949712 -0.015046373 -0.10869241
-0.044944029 -0.015128504 -0.10864864
-0.034870047 -0.015109953 -0.10866282
-0.024910886 -0.015077677 -0.10862334
-0.014882735 -0.015029076 -0.10864919
-0.0048784399 -0.015053949 -0.10859006
0.0053937552 -0.015041762 -0.10815772
0.012058399 -0.01505174 -0.1051437
-0.082775719 -0.0050563975 -0.10542957
-0.07496161 -0.0050408118 -0.10872742
-0.064987265 -0.0049611735 -0.10871387
-0.054973662 -0.0049738083 -0.10868638
-0.044888642 -0.0050125937 -0.10866468
-0.03486025 -0.0050602397 -0.10865225
-0.024953878 -0.0050161756 -0.10860226
-0.014933877 -0.0050776703 -0.10862567
-0.0049565756 -0.0049788416 -0.10860986
0.0053874152 -0.0050685327 -0.1083335
0.012095287 -0.0049991929 -0.10512111
-0.082752757 0.0050314614 -0.10547491
-0.075031161 0.0050227884 -0.10873337
-0.065001786 0.0050741532 -0.10872634
-0.054954085 0.0050143031 -0.10867536
-0.044854667 0.005059131 -0.10869848
-0.034868162 0.0051054293 -0.10865897
-0.024888596 0.0049913521 -0.10865162
-0.014907622 0.0050264015 -0.10865081
-0.0049627251 0.0049782931 -0.10861099
0.005409183 0.0049714842 -0.10825948
0.012059238 0.0050921007 -0.10513596
-0.082770392 0.014987343 -0.10536629
-0.074885443 0.014987984 -0.10873724
-0.064987063 0.015075513 -0.10871696
-0.054893982 0.014967714 -0.10867602
-0.044953629 0.015051998 -0.10865669
-0.03485655 0.015106371 -0.10868642
-0.024955094 0.015049663 -0.10863224
-0.014894279 0.015040306 -0.10865701
-0.0048577935 0.015011393 -0.1086065
0.005394463 0.015000604 -0.10833655
0.012061765 0.015033258 -0.10507217
-0.082735538 0.024960143 -0.10536586
-0.074958913 0.025020765 -0.10874943
-0.064972758 0.024969 -0.10872311
-0.054980878 0.024956118 -0.10870227
-0.04486696 0.025015911 -0.10869355
-0.034796402 0.025105918 -0.10866041
-0.024796549 0.025043426 -0.10867916
-0.014850636 0.024975328 -0.10864694
-0.0048936559 0.024955122 -0.10862255
0.0051432922 0.025007101 -0.10828661
0.011996367 0.024960572 -0.10510967
-0.082703114 0.035310809 -0.10515022
-0.074926846 0.036457818 -0.1072844
-0.064937465 0.036555525 -0.10726401
-0.054924443 0.036506612 -0.1072184
-0.044903789 0.036559511 -0.1072469
-0.034952689 0.036551181 -0.1071909
-0.024888029 0.036571678 -0.1071939
-0.014894486 0.03644181 -0.10725275
-0.0050496995 0.036411837 -0.10717604
0.0050855451 0.036276992 -0.10714307
0.012037312 0.035300296 -0.10500769
-0.082378916 0.040746596 -0.10497936
-0.074937977 0.040766384 -0.10477908
-0.064928778 0.040775202 -0.10499924
-0.054985393 0.040790636 -0.10499964
-0.045026388 0.040791869 -0.10508186
-0.034968 0.040764347 -0.10506342
-0.025026796 0.040792428 -0.10516984
-0.015135276 0.040773883 -0.10495587
-0.0050446014 0.040770859 -0.10498715
0.0047916505 0.040770747 -0.10481365
0.011657351 0.040726166 -0.10480385
-0.082292944 -0.040127903 -0.094952531
-0.075178683 -0.04012166 -0.095060699
-0.06488061 -0.040116429 -0.095022276
-0.055232987 -0.040117294 -0.094975598
-0.04501497 -0.040119596 -0.095115624
-0.035001643 -0.040116496 -0.095043525
-0.024975479 -0.040111121 -0.095065676
-0.014777131 -0.040123556 -0.094965428
-0.0050181462 -0.040106971 -0.095091522
0.0050399411 -0.040124159 -0.095023811
0.011682223 -0.040140919 -0.094817638
-0.082747877 -0.035742234 -0.094951503
-0.074942634 -0.038998011 -0.094974242
-0.065149039 -0.038973443 -0.095111772
-0.055142749 -0.038973004 -0.095062524
-0.045029875 -0.038970847 -0.095069677
-0.034942061 -0.038967676 -0.095019534
-0.024982054 -0.038955357 -0.095145568
-0.015011598 -0.038988363 -0.094997771
-0.0049222498 -0.03899613 -0.094997719
0.0054293023 -0.038629364 -0.094997197
0.012018118 -0.035471324 -0.094879746
-0.08299274 -0.024970578 -0.094965808
0.0095043983 -0.025237676 -0.095365152
0.012073673 -0.024989089 -0.094958574
-0.082973987 -0.015011392 -0.094905525
0.0095506553 -0.015158048 -0.094537176
0.012055066 -0.015000143 -0.095074378
-0.082994856 -0.0049843965 -0.095033377
0.009511509 -0.0049910718 -0.095501915
0.012053911 -0.0050316709 -0.095182285
-0.083013706 0.0050276592 -0.095052317
0.0095535098 0.0051221862 -0.094885111
0.012019037 0.0050272169 -0.095085621
-0.082955733 0.015049414 -0.094871409
0.0095475484 0.015009905 -0.095357433
0.012054394 0.015046037 -0.095111549
-0.082968034 0.024936847 -0.095033772
0.0095316479 0.025231177 -0.094545811
0.012062461 0.024986273 -0.095009975
-0.082809173 0.035489388 -0.094975896
-0.074995585 0.03931395 -0.094979882
-0.065141357 0.039308451 -0.09501522
-0.054964095 0.039300103 -0.094923526
-0.044993557 0.039310697 -0.095043987
-0.035046432 0.039300065 -0.094879352
-0.024947625 0.039314065 -0.095045887
-0.014908948 0.039301641 -0.094970569
-0.004983414 0.039302252 -0.094965979
0.0056904773 0.038567495 -0.094994493
0.011961579 0.035479411 -0.094943665
-0.082422458 0.040811017 -0.094903611
-0.075070731 0.040785108 -0.095026061
-0.065112025 0.040791344 -0.095133424
-0.055176917 0.040781047 -0.095071889
-0.04513729 0.040784448 -0.095023714
-0.035114016 0.040782731 -0.094935521
-0.025022794 0.0407946 -0.095138803
-0.015059499 0.040781494 -0.095006034
-0.0051307832 0.040787712 -0.095087886
0.0049613034 0.04078728 -0.095066741
0.011717694 0.040671818 -0.095109634
-0.082421146 -0.040184002 -0.085144296
-0.075025797 -0.040124424 -0.085021727
-0.064973414 -0.040110916 -0.085158423
-0.054938361 -0.040114269 -0.085006893
-0.045137901 -0.040119648 -0.085004069
-0.034766741 -0.040108375 -0.085132264
-0.024917807 -0.040118355 -0.084991142
-0.014861642 -0.04011444 -0.084984764
-0.0047117337 -0.040111441 -0.085161559
0.0046447534 -0.040145122 -0.085058287
0.011714034 -0.040138822 -0.08496698
-0.082820363 -0.035791371 -0.084980838
-0.074982323 -0.038962148 -0.08499895
-0.064997688 -0.038936488 -0.084988363
-0.054981403 -0.038955342 -0.084979914
-0.045004386 -0.038954005 -0.085032873
-0.035023559 -0.038952377 -0.085034892
-0.024935309 -0.038942695 -0.0849673
-0.01505821 -0.038951993 -0.084953599
-0.0049701403 -0.038955752 -0.084946945
0.0054911976 -0.038578346 -0.085083045
0.011993835 -0.035557218 -0.085010797
-0.083058193 -0.024996283 -0.085076436
0.0095359422 -0.025276182 -0.085201859
0.012008471 -0.025005853 -0.084937513
-0.083026834 -0.015069466 -0.084985167
0.0095615005 -0.015156191 -0.084529229
0.01206271 -0.015089386 -0.085072972
-0.083030254 -0.0049516503 -0.085099675
0.0095327692 -0.0050383001 -0.085284173
0.012040781 -0.005090632 -0.085172571
-0.083016746 0.005045563 -0.085057124
0.009581849 0.004990886 -0.08489912
0.012014766 0.0050669042 -0.085143872
-0.083018251 0.015037124 -0.084977314
0.0095754405 0.015036684 -0.08515577
0.012044957 0.015057269 -0.085069604
-0.082972571 0.024992647 -0.085034668
0.0095914677 0.025280118 -0.084761202
0.012018235 0.024999017 -0.084969915
-0.082859233 0.035557639 -0.084949218
-0.075064048 0.039299052 -0.084997289
-0.065120287 0.039300364 -0.085015453
-0.054984387 0.039306805 -0.08503671
-0.044936579 0.039289653 -0.085072264
-0.035016462 0.039278883 -0.084936157
-0.025019974 0.039301693 -0.085078724
-0.015066935 0.039301451 -0.08499074
-0.0050298241 0.039305318 -0.085000515
0.0057702349 0.038470544 -0.084959194
0.011947497 0.035521612 -0.085028529
-0.082470924 0.040798079 -0.084947109
-0.074939139 0.040789608 -0.085081838
-0.065130018 0.040808413 -0.085008882
-0.055056613 0.040792044 -0.085147038
-0.044971507 0.040796299 -0.085057899
-0.035052013 0.040810127 -0.085073858
-0.025044288 0.040788993 -0.085093588
-0.015108274 0.040787239 -0.085022077
-0.0051102787 0.040809546 -0.085060239
0.0050705974 0.04078969 -0.085082777
0.011648401 0.040713388 -0.085227579
-0.082570471 -0.04016228 -0.075003371
-0.075228751 -0.040138975 -0.075095408
-0.065079868 -0.040120143 -0.075097449
-0.055302534 -0.040111173 -0.075062051
-0.044856515 -0.040116247 -0.075024299
-0.034936048 -0.040115986 -0.075026907
-0.025079032 -0.040108573 -0.074883789
-0.014782519 -0.040120322 -0.07510341
-0.0050489861 -0.040111076 -0.07506901
0.0050877994 -0.040147483 -0.075129271
0.01171758 -0.040175427 -0.074927993
-0.082836337 -0.035776541 -0.074965112
-0.075006396 -0.038980346 -0.074919641
-0.065059066 -0.038935505 -0.074976556
-0.055124514 -0.03893996 -0.075014986
-0.045045681 -0.038944818 -0.075022757
-0.034979578 -0.038934208 -0.074992441
-0.025126921 -0.038943727 -0.074955985
-0.015044502 -0.038938709 -0.075076461
-0.0048529296 -0.038942728 -0.074956015
0.0054494548 -0.038641099 -0.074969336
0.011956346 -0.035519905 -0.075100891
-0.083037123 -0.025004016 -0.075064838
0.0095521566 -0.02544535 -0.0750781
0.012020183 -0.024995323 -0.07510221
-0.083033122 -0.014994683 -0.075035684
0.0095897513 -0.015245936 -0.074565671
0.012035182 -0.014939412 -0.075131394
-0.083050109 -0.004953742 -0.075064391
0.0095474366 -0.0054382575 -0.075220436
0.012033531 -0.005049265 -0.075145617
-0.083003826 0.0051384578 -0.074997321
0.0095911091 0.0046657291 -0.075062633
0.01201748 0.0049908673 -0.075166754
-0.083006985 0.015027728 -0.075062625
0.0095862802 0.015291792 -0.075191654
0.012013004 0.014951182 -0.07511916
-0.083009437 0.025020868 -0.075027488
0.0096222088 0.025174817 -0.074798554
0.012010625 0.025021367 -0.075012386
-0.082876928 0.035564922 -0.074968986
-0.074944697 0.039310835 -0.075012915
-0.064988554 0.039308891 -0.07499887
-0.054926492 0.039282978 -0.075005904
-0.04498795 0.039289176 -0.075077891
-0.035126299 0.039279763 -0.075002283
-0.025080875 0.039292205 -0.075073533
-0.014911121 0.039289832 -0.074988097
-0.0049941614 0.039309911 -0.074987933
0.0057905861 0.038407154 -0.074966177
0.011951205 0.035584815 -0.075101897
-0.082420766 0.040725965 -0.074924603
-0.074887171 0.040797964 -0.075047038
-0.064958058 0.040810287 -0.075098433
-0.055160303 0.040782351 -0.075143911
-0.044998474 0.040803339 -0.074899144
-0.034980956 0.040794123 -0.075182997
-0.025097625 0.040805943 -0.074965201
-0.01511225 0.040786415 -0.075112067
-0.0051212138 0.040807065 -0.075166233
0.0050011044 0.040789183 -0.074999422
0.011633328 0.040760193 -0.075292706
-0.08263126 -0.040139902 -0.066112198
-0.075236104 -0.04015949 -0.065891616
-0.064864054 -0.040131606 -0.065717556
-0.055262722 -0.040112086 -0.065713182
-0.044876032 -0.040116969 -0.065641902
-0.034684092 -0.040129721 -0.065341078
-0.02515688 -0.04015699 -0.065522403
-0.014918891 -0.040198445 -0.065407194
-0.005055631 -0.040142197 -0.06534294
0.0048954273 -0.040175375 -0.064978495
0.011803783 -0.040120479 -0.065436378
-0.082745239 -0.03564544 -0.065023974
-0.075092293 -0.037196796 -0.064313352
-0.065029062 -0.037258152 -0.064273112
-0.055076882 -0.03734016 -0.064290114
-0.045059662 -0.037331183 -0.064188942
-0.034967437 -0.037353821 -0.064162098
-0.024939893 -0.037371114 -0.064209767
-0.01498231 -0.037361011 -0.064164512
-0.0049545453 -0.037293192 -0.064117111
0.0053741895 -0.03722797 -0.064189918
0.011895532 -0.035338394 -0.065102525
-0.082960106 -0.025144503 -0.064966559
-0.0751018 -0.02489304 -0.062512591
-0.065125406 -0.02507079 -0.0623459
-0.055097375 -0.024968101 -0.062162872
-0.044957519 -0.025139948 -0.06188124
-0.034866005 -0.024862885 -0.061890192
-0.024996268 -0.025054337 -0.061782699
-0.015206295 -0.02496041 -0.061838951
-0.0050465199 -0.024918871 -0.061901014
0.005597278 -0.024979897 -0.062396914
0.011955969 -0.025030619 -0.065055661
-0.082937881 -0.015068431 -0.064980172
-0.075059861 -0.014920525 -0.06242257
-0.065592915 -0.015742619 -0.062107887
-0.054965224 -0.015916167 -0.061805524
-0.044924498 -0.015304544 -0.061626721
-0.034784999 -0.015098412 -0.061715007
-0.024904205 -0.015090194 -0.061722055
-0.014922208 -0.015111216 -0.06176899
-0.0049987319 -0.015223552 -0.061839443
0.0057130903 -0.015135324 -0.062404398
0.012020935 -0.015066328 -0.06507457
-0.082951546 -0.0050593303 -0.064984314
-0.075859927 -0.005499668 -0.062171429
-0.06890431 -0.0094559826 -0.061197929
-0.050504874 -0.009240618 -0.06115672
-0.043939035 -0.0056706788 -0.061306011
-0.034896806 -0.0050607361 -0.061531309
-0.024941374 -0.0049226703 -0.061781697
-0.015047089 -0.0051175212 -0.061837699
-0.0050817649 -0.0050666425 -0.061810579
0.0055847587 -0.0050843609 -0.062448651
0.01197921 -0.0050327135 -0.06493625
-0.082857139 0.0049196961 -0.06495101
-0.076567397 0.0053561772 -0.062127769
-0.043375511 0.0052518304 -0.061374795
-0.034602251 0.0048116138 -0.06164445
-0.024962647 0.0050328202 -0.0617413
-0.015004086 0.0050068148 -0.061830964
-0.005064493 0.0049807034 -0.061865855
0.0056534382 0.0049395533 -0.062482715
0.011969886 0.0050483695 -0.064899743
-0.082936004 0.01505629 -0.064881533
-0.075247802 0.015126712 -0.062337752
-0.066078052 0.018035984 -0.061886374
-0.054430511 0.017921932 -0.061799131
-0.04486578 0.015453193 -0.061875224
-0.034904469 0.015212095 -0.061949003
-0.024863064 0.014983223 -0.061902229
-0.014993235 0.015144698 -0.061916262
-0.0051013543 0.015133798 -0.061872993
0.0057516308 0.015016355 -0.062546872
0.011988383 0.015025906 -0.065089211
-0.082920186 0.025071891 -0.064877875
-0.07502906 0.025048357 -0.062469982
-0.065216161 0.02511673 -0.06244316
-0.055226628 0.025157688 -0.062370263
-0.045043774 0.025271028 -0.062217109
-0.03479955 0.025071966 -0.062148955
-0.024770487 0.025063572 -0.061982013
-0.014949631 0.025166817 -0.062034037
-0.0049459259 0.025068453 -0.061969269
0.0057575274 0.025074815 -0.062594399
0.011962907 0.025033236 -0.064984195
-0.082830891 0.035419729 -0.064931773
-0.07521157 0.036645535 -0.063638479
-0.065130539 0.03674585 -0.063680097
-0.055147778 0.036880914 -0.063714005
-0.04519517 0.036838416 -0.063627057
-0.035043754 0.037044022 -0.063664384
-0.025020065 0.036871318 -0.063612804
-0.015008751 0.036877774 -0.06349054
-0.0049946369 0.036867712 -0.06345506
0.0053648725 0.036698163 -0.0636274
0.011908511 0.035616275 -0.06503436
-0.082397349 0.040763617 -0.065026373
-0.075120501 0.040796828 -0.065182947
-0.064864732 0.040796619 -0.065300874
-0.055055808 0.040777188 -0.065421209
-0.045117851 0.040802382 -0.064991206
-0.035144955 0.040790629 -0.065307133
-0.025073783 0.04077924 -0.065268584
-0.01498423 0.040787756 -0.065267622
-0.0051774541 0.040808801 -0.065156423
0.0050979452 0.040807553 -0.065080933
0.011653035 0.040689908 -0.065292031
-0.082448557 -0.040195048 -0.059377186
-0.078455716 -0.04019621 -0.059115671
-0.052625075 -0.040203661 -0.059759133
-0.046380024 -0.040204488 -0.059335183
-0.022173837 -0.040211499 -0.05995249
-0.014414415 -0.040232595 -0.059358761
0.0097215474 -0.040220857 -0.059892766
0.011245795 -0.040110976 -0.05961151
-0.082290493 -0.034434773 -0.05919797
-0.074621372 -0.035014234 -0.0591162
-0.064872928 -0.035015758 -0.059138611
-0.05504315 -0.034981657 -0.059117429
-0.045086194 -0.034943394 -0.059110999
-0.034697294 -0.034990657 -0.05916746
-0.02486551 -0.035099942 -0.059201147
-0.014927631 -0.034994457 -0.059238337
-0.0047913245 -0.034923725 -0.059236474
0.0051050875 -0.034984086 -0.059282374
0.011776573 -0.034734607 -0.059414726
-0.082057357 -0.025040913 -0.059132081
-0.074408539 -0.025214903 -0.05911034
-0.065055676 -0.025066193 -0.059085518
-0.05488839 -0.024951382 -0.059110425
-0.044896401 -0.025049904 -0.059100904
-0.034982413 -0.025310939 -0.059145313
-0.024504919 -0.024925578 -0.059159435
-0.014698422 -0.02500445 -0.059199285
-0.0047961189 -0.025203144 -0.059239984
0.0055150492 -0.025246013 -0.059271976
0.011568281 -0.024790885 -0.059376094
-0.08227355 -0.015562543 -0.05933854
-0.074037962 -0.014198305 -0.058255184
-0.065059155 -0.013493594 -0.055303689
-0.055005334 -0.014065752 -0.055625204
-0.04600206 -0.013953906 -0.057395112
-0.035021681 -0.015313624 -0.059125643
-0.024868758 -0.014694725 -0.059129879
-0.014832357 -0.014762182 -0.059180129
-0.004758527 -0.015085541 -0.05921831
0.0051104994 -0.015179782 -0.059258465
0.011361587 -0.015195624 -0.059404884
-0.082918115 -0.0051234541 -0.059370305
-0.073267482 -0.0048688394 -0.055167727
-0.068794981 -0.0087966183 -0.053850066
-0.051086903 -0.0093486449 -0.057283223
-0.04546557 -0.0053504501 -0.055660896
-0.035090681 -0.0050985324 -0.059119962
-0.024731908 -0.0049520014 -0.059168618
-0.014448403 -0.0050079785 -0.059177503
-0.0046924083 -0.0051254029 -0.059225716
0.0053903628 -0.0051314817 -0.059243679
0.011767281 -0.0051842425 -0.059393764
-0.083085053 0.0048902547 -0.059276506
-0.074116029 0.0049475138 -0.054906804
-0.069957346 0.0094211698 -0.051139891
-0.044377271 0.0051378184 -0.055668082
-0.035151184 0.0049199667 -0.059096701
-0.024801541 0.0049919598 -0.059139725
-0.014563389 0.0050231754 -0.059154525
-0.0046569239 0.0047639422 -0.05917789
0.0052818628 0.005201783 -0.059228458
0.011539874 0.0050792438 -0.059484035
-0.082401946 0.015439645 -0.059336219
-0.072249494 0.012891779 -0.055357758
-0.065809347 0.017071288 -0.054699425
-0.054672476 0.018035768 -0.05495828
-0.04631656 0.014010205 -0.055945423
-0.035106655 0.014979489 -0.05916186
-0.024980264 0.014783769 -0.05912932
-0.014791209 0.014737175 -0.059169117
-0.0047897361 0.015014413 -0.059205204
0.0052988944 0.015097861 -0.059247907
0.011427033 0.01460241 -0.059343208
-0.081940375 0.025283605 -0.058945887
-0.074161068 0.025399646 -0.058875434
-0.064041771 0.02436549 -0.057861038
-0.055652991 0.023346275 -0.056838673
-0.044788096 0.024673663 -0.059055004
-0.034702137 0.024956467 -0.059090883
-0.024731044 0.025000224 -0.059106201
-0.014770034 0.024888759 -0.059143618
-0.004802838 0.024872223 -0.059171941
0.0054490278 0.025163446 -0.059206072
0.01161566 0.025165606 -0.05938353
-0.082754903 0.03482683 -0.05892561
-0.074755982 0.035410002 -0.058895748
-0.064757317 0.035718098 -0.058984376
-0.054929402 0.035174169 -0.059024896
-0.044711385 0.035356209 -0.059039626
-0.034823716 0.034986854 -0.059141856
-0.024751078 0.035378136 -0.059166461
-0.015020641 0.035048623 -0.059164129
-0.0049759578 0.035030127 -0.059190635
0.0051557622 0.035315298 -0.059216309
0.011587805 0.035343446 -0.059240196
-0.082025841 0.040798496 -0.059326917
-0.074889176 0.040695578 -0.059099887
-0.064858057 0.040826421 -0.059154145
-0.055779018 0.040703725 -0.059225127
-0.045467276 0.040727336 -0.059288248
-0.034987796 0.040738869 -0.059324555
-0.024192125 0.040626325 -0.059227113
-0.014941794 0.040712338 -0.059388258
-0.005177882 0.040762603 -0.059250284
0.0037693824 0.040696509 -0.059380736
0.011367994 0.040518299 -0.059495825
-0.070516877 -0.01056031 -0.046600904
-0.064639978 -0.013019077 -0.044957127
-0.055108406 -0.014635039 -0.044893466
-0.047434289 -0.012079396 -0.04442209
-0.072124638 -0.0042580911 -0.045206357
-0.068721183 -0.0078989277 -0.044442307
-0.043474048 -0.0056200265 -0.044929113
-0.039264664 -0.0025912949 -0.042280234
-0.072615191 0.0048870998 -0.045117728
-0.069531202 0.0087040449 -0.043164033
-0.042197816 0.0051368922 -0.044974968
-0.039111093 0.0043664058 -0.042538792
-0.071410306 0.012018291 -0.045686141
-0.065632753 0.016339587 -0.044904374
-0.054324221 0.018695885 -0.045378771
-0.046004385 0.014615012 -0.044598326
-0.039879844 0.010094702 -0.042862684
-0.06141239 0.020397138 -0.045194097
-0.056107834 0.020533834 -0.044350587
-0.049384817 0.020143822 -0.041026145
-0.0704806 -0.01068446 -0.038486481
-0.064158015 -0.013055611 -0.035007708
-0.054960165 -0.015705805 -0.034948885
-0.045893371 -0.013211196 -0.034603659
-0.039458238 -0.010961749 -0.031145632
-0.071500167 -0.0038330725 -0.035585448
-0.068482041 -0.0063919416 -0.034512267
-0.041880898 -0.0064505036 -0.035848156
-0.038465925 -0.0040869545 -0.033972312
-0.071730919 0.0046589584 -0.035693277
-0.069235884 0.0064143469 -0.033761051
-0.040913623 0.0060687559 -0.036868282
-0.038064759 0.0047452124 -0.034308229
-0.070964098 0.011889069 -0.035673004
-0.065447927 0.015623556 -0.034950662
-0.05511038 0.019114232 -0.035497461
-0.044765655 0.016017186 -0.034972139
-0.038987976 0.011798202 -0.033290055
-0.061244331 0.020475656 -0.035352487
-0.054946624 0.020811023 -0.034679841
-0.048452176 0.020481033 -0.033297382
-0.063635409 -0.01294469 -0.025087196
-0.055082303 -0.016403327 -0.02488461
-0.045047995 -0.014559633 -0.024884382
-0.038665827 -0.011445527 -0.023855714
-0.071113348 -0.0032936207 -0.025871355
-0.067901134 -0.0057949647 -0.024731684
-0.040984493 -0.0086947 -0.026974829
-0.036723182 -0.0048811776 -0.02464167
-0.071277492 0.0042621968 -0.026006954
-0.068697333 0.0052992161 -0.024525626
-0.040274039 0.0096910596 -0.028129715
-0.036074109 0.005095006 -0.024980446
-0.07070177 0.011312468 -0.026927885
-0.064965539 0.015081964 -0.025008973
-0.05627875 0.019158157 -0.025121577
-0.043778706 0.017358398 -0.025374064
-0.038053259 0.013107684 -0.024305977
-0.060962047 0.020547409 -0.025396891
-0.054520752 0.021150555 -0.024886312
-0.047517989 0.020878347 -0.024403276
-0.063074939 -0.012893126 -0.015176639
-0.055192914 -0.016848797 -0.014944491
-0.044917252 -0.016322643 -0.014978317
-0.037778992 -0.012623745 -0.014415213
-0.070584759 -0.0027937763 -0.016656578
-0.067096666 -0.0053662448 -0.014812672
-0.034248572 -0.0053424365 -0.015191078
-0.029578125 -0.0016253227 -0.01130683
-0.070677437 0.0037314086 -0.016786741
-0.067838401 0.0052181357 -0.014644359
-0.033329803 0.0052551255 -0.015295385
-0.029528266 0.0027477823 -0.011577473
-0.070213042 0.010710512 -0.017928803
-0.064161137 0.014790667 -0.015058704
-0.057447355 0.018955214 -0.014917735
-0.042779181 0.018446017 -0.015875995
-0.036626577 0.014397872 -0.014602939
-0.060884882 0.020447558 -0.01615867
-0.054298948 0.021404224 -0.014990261
-0.046335366 0.021347949 -0.014628278
-0.03945481 0.02036331 -0.011895612
-0.051183783 -0.020058423 -0.0010989504
-0.047626086 -0.020180881 -0.0020153669
-0.062478848 -0.01272847 -0.0053585609
-0.05527826 -0.016955629 -0.0050805937
-0.044965144 -0.017854217 -0.0050807134
-0.036170542 -0.013708934 -0.0047167684
-0.029968292 -0.010438681 -0.0011398643
-0.070239812 -0.0013587922 -0.0079220813
-0.066054635 -0.0052093095 -0.0050249421
-0.032300178 -0.0058462922 -0.0056938287
-0.028912442 -0.0038581442 -0.003680899
-0.070220001 0.0028738738 -0.0064158677
-0.066741608 0.0050422759 -0.0048605651
-0.03167155 0.0053997417 -0.0060478454
-0.02874654 0.0043802983 -0.0040216972
-0.063431978 0.014218269 -0.0052228007
-0.057769056 0.01849811 -0.004859502
-0.041688908 0.019213298 -0.0063652936
-0.035078943 0.015357945 -0.0049872091
-0.029484576 0.011455419 -0.0025237082
-0.060521215 0.020300031 -0.0060090958
-0.053948063 0.021561304 -0.0051140473
-0.045329757 0.021846563 -0.0049128267
-0.038411491 0.020741262 -0.0039831176
-0.050931819 -0.020264318 0.0057716086
-0.045592435 -0.020395536 0.0060745231
-0.038913868 -0.020130366 0.009416759
-0.061995365 -0.01234551 0.0046679382
-0.055353478 -0.016832093 0.0048250342
-0.044885069 -0.018792039 0.0047032004
-0.035142627 -0.015069853 0.0049258005
-0.029048501 -0.01157218 0.0065447451
-0.06471958 -0.0052151671 0.0049082935
-0.031135624 -0.0069540958 0.0030383724
-0.027725531 -0.0046071191 0.0054125856
-0.065334827 0.0049812715 0.0048486688
-0.030619998 0.0071505751 0.0022020326
-0.027429719 0.0048433738 0.0052682231
-0.06250862 0.013690278 0.0047650835
-0.057625834 0.017949861 0.0052635395
-0.040998545 0.019638531 0.0024486564
-0.033623546 0.0163476 0.0045998544
-0.028567685 0.012633278 0.0061276993
-0.060144894 0.020097286 0.0025694966
-0.053513154 0.021642152 0.0048713265
-0.045226946 0.022313369 0.0049417312
-0.037944857 0.021148158 0.0054827281
-0.051217601 -0.020429352 0.015027572
-0.044955146 -0.020791721 0.015285568
-0.038446356 -0.020485761 0.016514614
-0.061497293 -0.012212419 0.014350591
-0.055462975 -0.016435457 0.014850714
-0.045032259 -0.019329997 0.014433976
-0.03450359 -0.01676169 0.014591161
-0.028143385 -0.012620484 0.015915615
-0.081604034 -0.0010626316 0.019892573
-0.073886231 -0.001112867 0.019748334
-0.063310795 -0.0052112304 0.014784345
-0.05963191 -0.0094760666 0.017439945
-0.030402442 -0.0092380196 0.011198355
-0.025558684 -0.0051821363 0.014974167
-0.091975257 0.00027880073 0.019935638
-0.083941728 0.002894761 0.01983835
-0.074231714 0.0032327231 0.019670488
-0.063894376 0.0047409819 0.015002122
-0.024885595 0.0050470466 0.014893478
-0.061794214 0.013180565 0.014286472
-0.05728709 0.017139891 0.015221997
-0.032445703 0.017748611 0.01421128
-0.02750444 0.013720469 0.015380016
-0.052946266 0.021468259 0.014369498
-0.045261458 0.023161268 0.014423506
-0.036510572 0.02169239 0.014172964
-0.037134729 0.0027547148 -0.0034133093
-0.051232412 -0.020571591 0.02490955
-0.044628967 -0.021147121 0.025164677
-0.037057579 -0.020947834 0.025765976
-0.1012426 -0.01200762 0.028246965
-0.094839066 -0.011945812 0.028050112
-0.08482147 -0.012167019 0.027826965
-0.075087421 -0.012561763 0.027605927
-0.064542599 -0.012832558 0.026817823
-0.055398718 -0.016153669 0.025050823
-0.047003187 -0.019462477 0.023961063
-0.033574577 -0.018167943 0.024385482
-0.02673145 -0.013768652 0.025304193
-0.10120285 -0.005784377 0.024117507
-0.095023699 -0.0053844755 0.024452154
-0.085157335 -0.0051499722 0.02401338
-0.075059995 -0.0053370004 0.023562899
-0.065054767 -0.0056470339 0.023497093
-0.059450835 -0.0088804411 0.024355588
-0.022983974 -0.0052469396 0.024651386
-0.018825775 -0.0029037893 0.027812004
-0.1011783 0.0054688612 0.021898607
-0.094923541 0.0049792645 0.022685153
-0.085076377 0.0050616171 0.02242671
-0.075091541 0.0053485902 0.022147186
-0.065498404 0.0053474307 0.022900112
-0.05989565 0.0092030913 0.022201158
-0.022566127 0.0051670116 0.024521949
-0.018781945 0.0038840827 0.027732709
-0.1010524 0.014894276 0.026192836
-0.094405994 0.014586791 0.025961291
-0.084192127 0.014336108 0.025288323
-0.074810311 0.01456375 0.02518242
-0.064101897 0.014830478 0.024584761
-0.056651678 0.017318994 0.023868103
-0.031583641 0.01869682 0.023594372
-0.026220169 0.014876658 0.02458605
-0.019668467 0.010623023 0.027557731
-0.10129553 0.020420805 0.029921629
-0.09442205 0.020406913 0.029420806
-0.083953843 0.020590488 0.029370839
-0.073992953 0.020710168 0.029217783
-0.064945608 0.020968892 0.029104875
-0.0528742 0.021662518 0.024416072
-0.044806149 0.02341068 0.024348443
-0.035497051 0.022332158 0.023874704
-0.03010102 0.020411836 0.022250792
-0.10142982 -0.020092726 0.039212614
-0.093612753 -0.020318033 0.039003536
-0.084343545 -0.020577008 0.038671527
-0.074714147 -0.020864083 0.038438246
-0.064744137 -0.021097546 0.037884019
-0.054441687 -0.021410147 0.036988713
-0.044933692 -0.021815937 0.03525703
-0.035813365 -0.02153993 0.035329398
-0.029082781 -0.020584242 0.037577912
-0.101389 -0.015962582 0.03518619
-0.095121853 -0.01586194 0.034820609
-0.085204236 -0.016463244 0.034624409
-0.075164557 -0.016985917 0.034396671
-0.065066338 -0.017289599 0.033815864
-0.055594098 -0.017429402 0.033807494
-0.047756862 -0.018393064 0.034380119
-0.031970877 -0.018882917 0.034050133
-0.025173372 -0.015349281 0.03507347
-0.015624443 -0.012543902 0.037597172
-0.0064849844 -0.011814045 0.038646404
0.0026902326 -0.010718127 0.039229948
-0.095187239 -0.0093462467 0.030729417
-0.087388717 -0.0092312004 0.030304909
-0.062164929 -0.0044972044 0.034936201
-0.057166278 -0.0056812288 0.037903037
-0.045334406 -0.0049270838 0.039657768
-0.021822322 -0.0068224152 0.032022856
-0.01495657 -0.0053134165 0.034017991
-0.0051506562 -0.0050502471 0.036556128
0.0040479847 -0.0039885305 0.038219456
0.013367408 -0.0029555121 0.038896739
0.020833775 -0.00088399649 0.039726961
-0.062473312 0.0046011922 0.035112258
-0.056772791 0.0052958839 0.0388579
-0.044946671 0.0048119221 0.039630532
-0.021435151 0.006176068 0.031421661
-0.015274802 0.0048465929 0.033027608
-0.0059248656 0.004917901 0.035418868
0.0026089512 0.0042426297 0.037358459
0.011381033 0.0042414544 0.037811667
0.020442441 0.0026790798 0.039775468
-0.1015953 0.018399719 0.032302979
-0.09451557 0.017981783 0.030356716
-0.084798768 0.018074505 0.03089908
-0.075416841 0.018479653 0.031617772
-0.063763104 0.016497113 0.032545138
-0.056975447 0.016211914 0.034912523
-0.045812424 0.013904355 0.039731756
-0.030616634 0.019313818 0.032248043
-0.024232455 0.016231317 0.033579946
-0.015986379 0.014163453 0.034539856
-0.0069654034 0.012668994 0.034503914
0.0016791532 0.011737873 0.034811031
0.010364652 0.01178962 0.039499402
-0.10135569 0.022652958 0.035763692
-0.094322696 0.022584636 0.03491123
-0.084288493 0.022800842 0.033903837
-0.074093521 0.02293103 0.033549067
-0.064240739 0.023300219 0.03328982
-0.054438848 0.02355973 0.033117007
-0.04503376 0.024291329 0.033954933
-0.034913369 0.022929586 0.033686683
-0.027826298 0.020684965 0.033438541
-0.018328035 0.020557839 0.039034475
-0.10173991 -0.020864423 0.046686042
-0.094661586 -0.021183228 0.04624005
-0.0848502 -0.021713624 0.04557652
-0.074884623 -0.022440812 0.045269869
-0.065014184 -0.023253063 0.045023683
-0.055005878 -0.024169972 0.04487681
-0.04518012 -0.023986878 0.04504266
-0.035201784 -0.022236692 0.045225553
-0.025834732 -0.021325989 0.046856109
-0.016451336 -0.020804923 0.048257649
-0.0083353594 -0.02034945 0.049270693
-0.1016046 -0.018805509 0.043749027
-0.095581084 -0.018952435 0.043064568
-0.085784741 -0.019195665 0.042140964
-0.076129891 -0.019384138 0.041365311
-0.065648668 -0.019681552 0.040735777
-0.053995665 -0.013793177 0.040149685
-0.044754196 -0.015216025 0.044713419
-0.032682654 -0.019446045 0.042703681
-0.024148736 -0.018334018 0.043381542
-0.014767215 -0.017013926 0.044535793
-0.0049891951 -0.015166799 0.045048006
0.0047984505 -0.013678117 0.045994978
0.014343255 -0.012415732 0.047282096
0.023667447 -0.011598064 0.04829907
0.032953717 -0.010788429 0.048937544
-0.060239594 -0.0028920423 0.040363085
-0.056470022 -0.0047332169 0.040178679
-0.044820819 -0.0046407892 0.045144372
-0.0024601053 -0.0088454653 0.040746439
0.0060354201 -0.0067687286 0.041727424
0.014732048 -0.0054218448 0.043344378
0.023940815 -0.0049841283 0.045669172
0.032956317 -0.0039789747 0.047533747
0.042157631 -0.0036329282 0.04825075
0.051931109 -0.0016070328 0.049683847
-0.06042704 0.0046013244 0.040250506
-0.054975983 0.0054359827 0.040260516
-0.044601213 0.0049268221 0.045649983
-0.0013061702 0.0094111143 0.040459074
0.0069244686 0.0065514171 0.041063622
0.014265625 0.0051472723 0.041675385
0.023813048 0.0049637337 0.044067752
0.033265784 0.0046471669 0.046250049
0.039857276 0.0043579042 0.045175023
0.052833505 0.0019532912 0.049449243
-0.060112655 0.012081064 0.040301364
-0.05480095 0.015514111 0.040333562
-0.044768684 0.014617349 0.045215383
-0.022440804 0.019294895 0.041402325
-0.014130719 0.018152833 0.041791245
-0.0049273642 0.016308662 0.0419828
0.0042650006 0.01484191 0.04337481
0.01324179 0.013192478 0.043605793
0.022923799 0.011880738 0.045579024
0.030009465 0.010374106 0.045304339
0.042171925 0.010664555 0.049391903
-0.10155123 0.025867093 0.045177016
-0.09435641 0.02613646 0.043528795
-0.084305353 0.026617369 0.043515991
-0.074300922 0.027140982 0.043435931
-0.064584978 0.027571755 0.042992033
-0.054847661 0.02755725 0.042198244
-0.04448127 0.026922535 0.043383013
-0.034728121 0.024947077 0.043030184
-0.025552081 0.022503957 0.042669602
-0.015512911 0.021153409 0.0439048
-0.0069770147 0.019807864 0.044403415
-5.0188377e-05 0.018135365 0.043411188
-0.08334738 0.03009212 0.048645377
-0.074321724 0.030373661 0.048973292
-0.063657597 0.03034931 0.046057392
-0.054395355 0.030484777 0.043813277
-0.045579243 0.030484615 0.044051513
-0.10188977 -0.021402366 0.055435043
-0.095060356 -0.022076817 0.055041905
-0.08506681 -0.023212953 0.054987203
-0.075102083 -0.024369821 0.054951079
-0.065096453 -0.025544619 0.05497748
-0.055016141 -0.026681595 0.054920893
-0.045143552 -0.026283387 0.054970317
-0.035085134 -0.024678018 0.054931391
-0.025041841 -0.023298131 0.054969016
-0.015181272 -0.022037718 0.055234715
-0.0056633926 -0.021243425 0.056470938
0.0036645145 -0.020696761 0.057615824
0.012027416 -0.020370133 0.058874562
-0.10200405 -0.019817045 0.0539474
-0.098613515 -0.019752849 0.051461395
-0.044801429 -0.015081473 0.054957479
-0.012960609 -0.019464424 0.051522832
-0.0040119067 -0.01892399 0.052966204
0.0051535177 -0.018062519 0.054243054
0.01507109 -0.016604319 0.054806337
0.024933495 -0.014642097 0.054872714
0.034750357 -0.013267567 0.05583873
0.04450592 -0.012130992 0.057124462
0.053704746 -0.011215964 0.058285765
0.062944129 -0.010663558 0.058956437
-0.044928331 -0.0047475849 0.055123381
0.027655844 -0.0092620328 0.050572287
0.036092952 -0.0077841352 0.051428128
0.044896744 -0.0057554329 0.052603688
0.054274406 -0.0053916099 0.05475289
0.06392213 -0.0044447021 0.056762908
0.070114851 -0.003195531 0.057755977
-0.044750076 0.0048939893 0.055096291
0.029673755 0.0097171366 0.050884008
0.037104342 0.0079365866 0.051019251
0.044964056 0.0055827652 0.051490113
0.05331913 0.0051224702 0.052730214
0.063501045 0.0048627821 0.055407789
0.069093905 0.0040269028 0.055878591
-0.044839937 0.014650708 0.055219259
-0.0013884816 0.019634716 0.050973907
0.0064757913 0.018993631 0.051909976
0.015634079 0.018199677 0.052508578
0.024322091 0.016581424 0.052432161
0.033784755 0.014722454 0.053361617
0.043689065 0.013085338 0.054001492
0.051782019 0.01192245 0.054861661
0.060588062 0.011344277 0.054588176
0.070766687 0.011003554 0.059431747
-0.10178289 0.027328398 0.055256195
-0.094926156 0.027774626 0.053884801
-0.084831886 0.028346533 0.053554162
-0.074900694 0.02880051 0.052596483
-0.065469772 0.02919307 0.053902403
-0.055754509 0.029449273 0.053416867
-0.043777354 0.027387252 0.054175507
-0.034753423 0.02826073 0.053259388
-0.025261009 0.02663397 0.052903678
-0.015216524 0.024941953 0.053419515
-0.0053034672 0.022912918 0.052916065
0.0040120287 0.021404438 0.053386617
0.012862934 0.020507907 0.053947076
0.022219671 0.021263145 0.053759146
-0.090917416 0.030125454 0.055280603
-0.083414122 0.030358925 0.0561985
-0.074008793 0.029945914 0.054392926
-0.064780213 0.030615158 0.053476665
-0.054307081 0.031043505 0.053384379
-0.045596067 0.031252675 0.053689945
-0.037564501 0.028613983 0.051330954
-0.028880611 0.030111846 0.058402151
-0.10212656 -0.021095952 0.06459973
-0.09497419 -0.02185172 0.064899817
-0.085130975 -0.02321326 0.065057345
-0.07499145 -0.024680648 0.064831272
-0.065026969 -0.026025083 0.065071166
-0.055009115 -0.02741944 0.065001093
-0.045298222 -0.027003573 0.064996533
-0.035025932 -0.025815619 0.065009803
-0.025055842 -0.024749959 0.064984091
-0.014974219 -0.023598358 0.064966455
-0.0049815071 -0.0224408 0.064987704
0.0047582346 -0.021436555 0.065418355
0.014121544 -0.020779258 0.066019177
0.023066858 -0.020379055 0.067576498
0.030422807 -0.020110548 0.068515755
-0.10252661 -0.019494949 0.067232125
-0.097769164 -0.019643746 0.068456233
-0.045118526 -0.015260592 0.065110043
0.0072153108 -0.019640094 0.062165115
0.016010124 -0.01914468 0.063929439
0.025305938 -0.018389259 0.064612679
0.035122845 -0.017159659 0.064981118
0.045052052 -0.015557287 0.064901009
0.054989073 -0.013870911 0.064926401
0.064807177 -0.012517588 0.065706626
0.071077995 -0.011612884 0.066948958
-0.045247737 -0.0048882524 0.064998105
0.058636457 -0.009373066 0.060652178
0.067032441 -0.0080046216 0.061797686
0.072035044 -0.0047186241 0.065156847
-0.044973779 0.0047968654 0.064552046
0.059326343 0.0093896985 0.06061551
0.067772657 0.0078615472 0.06153227
0.072073124 0.0047799521 0.064956099
-0.04520404 0.014693246 0.065073282
0.018558759 0.019617567 0.061155699
0.026454803 0.019261608 0.06270881
0.035100695 0.018644601 0.063229688
0.044353656 0.017396258 0.063536711
0.054253437 0.015465491 0.063079491
0.063820086 0.013564308 0.063618548
0.067563981 0.012698895 0.062281914
-0.101996 0.026727809 0.065145634
-0.094914988 0.02747166 0.064485855
-0.084862463 0.028556729 0.064112939
-0.075653546 0.02900625 0.065576956
-0.065865934 0.029431829 0.065486275
-0.058089621 0.029850595 0.066003673
-0.044247676 0.026690144 0.065126903
-0.034245767 0.029151885 0.064963505
-0.02466209 0.028361451 0.064350799
-0.015085232 0.026724517 0.063247852
-0.0052366802 0.025337851 0.063771494
0.0044027646 0.023911146 0.063404366
0.014778728 0.022629777 0.06326963
0.024068313 0.021315968 0.063823327
0.031996574 0.020685481 0.062310275
0.037459522 0.019311499 0.060954649
-0.090987265 0.030088037 0.061114267
-0.082589172 0.03030731 0.063452348
-0.074068867 0.030546654 0.06313929
-0.064787492 0.030879466 0.063405067
-0.054951392 0.031771466 0.06424544
-0.045343179 0.031651687 0.063710123
-0.036208659 0.030081822 0.061983027
-0.026849853 0.029500568 0.060249481
-0.10154786 -0.020447141 0.071624555
-0.093957543 -0.020920951 0.072921187
-0.084695175 -0.021748815 0.074384905
-0.075016037 -0.023115447 0.074994512
-0.065089807 -0.024801545 0.07498356
-0.055058658 -0.026455322 0.075024679
-0.045322228 -0.026227681 0.075105727
-0.035082176 -0.025166551 0.075027637
-0.025018608 -0.024302719 0.075038381
-0.014954547 -0.023417385 0.07507439
-0.0049694227 -0.022524953 0.074936897
0.0049021528 -0.021609962 0.075039871
0.014501909 -0.020989187 0.074778706
0.024252718 -0.020536095 0.074929915
0.031523857 -0.020154377 0.075837247
-0.1026006 -0.017747657 0.075482883
-0.095719799 -0.018537 0.076254845
-0.0868029 -0.019228267 0.078032941
-0.078287378 -0.019807398 0.079471782
-0.045434926 -0.015293223 0.075042479
0.0076119881 -0.019853797 0.078766897
0.016357183 -0.019596707 0.07582929
0.025453059 -0.019150637 0.074971944
0.035108369 -0.018556107 0.075031102
0.044998683 -0.017557709 0.075055033
0.055064783 -0.016421314 0.074930839
0.065292567 -0.014924669 0.07478328
0.071367837 -0.012157178 0.07527896
-0.045337416 -0.004913718 0.075004384
0.074447922 -0.0052398299 0.074925408
0.084350601 -0.00082123838 0.078426138
0.093671285 -0.00074132852 0.079064146
0.10149799 -0.00010511279 0.079444438
-0.045145903 0.0047276705 0.074915946
0.074727707 0.0052334419 0.074965574
0.086425222 0.00075755164 0.078958146
0.094334289 0.00093548547 0.079477504
0.10302215 0.00069987774 0.07986363
-0.10373994 0.019773472 0.079187073
-0.045359638 0.014715326 0.075045615
0.028453976 0.019711077 0.076070733
0.036351267 0.019380093 0.074871197
0.045781396 0.018870812 0.074963771
0.054613091 0.017647659 0.073706962
0.064561315 0.015996717 0.073515967
0.071146451 0.012749052 0.074509636
-0.10229351 0.023860589 0.075248465
-0.095102996 0.025037769 0.074871108
-0.084978066 0.026610417 0.074804582
-0.075014293 0.027882047 0.07480377
-0.065572634 0.028777625 0.076188162
-0.056206003 0.029305512 0.076681055
-0.044112299 0.027567498 0.07582432
-0.03461612 0.028604541 0.075311765
-0.025100723 0.027838759 0.074551731
-0.014887882 0.026500916 0.073919676
-0.0051198709 0.025456939 0.074213304
0.0050330758 0.024343366 0.074106775
0.014879039 0.023079073 0.074244633
0.024332628 0.022000208 0.073675774
0.033880919 0.021195756 0.073992185
0.041612662 0.020321002 0.070783593
0.050563931 0.020214379 0.077911139
-0.071421504 0.029288908 0.067722797
-0.064230919 0.030504759 0.072924308
-0.054382499 0.030982917 0.073663168
-0.045853931 0.031117612 0.073606968
-0.036463622 0.030045902 0.072275616
-0.032294828 0.024044869 0.051905584
-0.090159461 -0.020122349 0.080595203
-0.08312837 -0.020624081 0.081413917
-0.074085884 -0.021256609 0.082740508
-0.064660192 -0.022190256 0.084257014
-0.054964889 -0.023674099 0.085087888
-0.045356844 -0.023672203 0.085085511
-0.0351074 -0.022703689 0.084922977
-0.025035372 -0.022176741 0.084624447
-0.014994166 -0.021656383 0.084367968
-0.00522066 -0.021269139 0.083706431
0.0046800808 -0.020916773 0.083266489
0.014109289 -0.020576078 0.08280848
0.023373414 -0.020339221 0.081869267
0.031580314 -0.020079851 0.081211545
-0.10260741 -0.013075827 0.084003426
-0.094951905 -0.014335314 0.084831536
-0.085252047 -0.016419044 0.085416526
-0.075661078 -0.018003043 0.086495094
-0.066459134 -0.018987669 0.088016063
-0.057405937 -0.019805323 0.089326344
-0.045394536 -0.015396539 0.0853808
-0.034254774 -0.019641045 0.089091338
-0.024266653 -0.019405713 0.088677421
-0.014610963 -0.019199623 0.088110141
-0.0046797632 -0.019048063 0.087418877
0.0053668618 -0.018828899 0.08636909
0.015276181 -0.018504249 0.085818782
0.025210064 -0.018102882 0.085291684
0.035075679 -0.017412938 0.085178047
0.045029312 -0.016703807 0.085088037
0.054913793 -0.015972184 0.084945746
0.0655021 -0.014622461 0.084891185
0.071248323 -0.011893107 0.084126472
-0.10308114 -0.0073388442 0.08843606
-0.097167589 -0.0086000012 0.088972583
-0.089615405 -0.0099086761 0.089773387
-0.045792233 -0.0045491438 0.085008815
0.069573075 -0.0095170401 0.088449895
0.074651204 -0.0050254711 0.085018806
0.085156463 -0.00058490603 0.08265014
0.094836555 -0.0005584411 0.083626881
0.10289826 -0.00063036761 0.084379971
-0.10344405 0.0091490336 0.08952751
-0.099081755 0.0094718933 0.089948013
-0.045777548 0.0047869971 0.08478637
0.069566332 0.009390682 0.088969216
0.074993163 0.0049662641 0.085071057
0.082572959 0.0014854155 0.079603367
0.091216885 0.0014888272 0.07992398
0.099877864 0.0014870673 0.078846432
-0.10273736 0.015971385 0.086351752
-0.095713392 0.017159309 0.087222546
-0.086158477 0.018576134 0.088393643
-0.077704512 0.019301124 0.089342162
-0.045732807 0.014483779 0.084810287
-0.0033268481 0.019688021 0.089317575
0.0059383456 0.019307066 0.088789247
0.015769668 0.019164566 0.088048816
0.025587317 0.018962147 0.086961739
0.035368107 0.018680435 0.086103536
0.045116667 0.018135341 0.084985018
0.054688375 0.017288305 0.084429905
0.065013096 0.015740799 0.084093548
0.071411274 0.012240672 0.084135063
-0.10234308 0.021258354 0.081561349
-0.094437294 0.021842081 0.082844369
-0.084719107 0.022828631 0.084330954
-0.075024173 0.024248196 0.085007757
-0.065103993 0.026045861 0.084913634
-0.055292688 0.027624987 0.085602216
-0.045076326 0.027248288 0.085500427
-0.035115611 0.026441632 0.084748752
-0.025121406 0.025433159 0.084857553
-0.015047142 0.024535252 0.085132562
-0.0051214988 0.023502713 0.084698491
0.0048339237 0.022507247 0.084260084
0.014830244 0.021844711 0.084640779
0.024545973 0.021132726 0.083683103
0.03308117 0.020359572 0.080741093
0.042585414 0.020287851 0.081577972
-0.060236201 0.030099824 0.081952825
-0.053174715 0.030530149 0.081958212
-0.047256626 0.030739203 0.082177103
-0.062766656 -0.020666802 0.09100154
-0.053955987 -0.021212488 0.092288733
-0.04627258 -0.021377945 0.092153586
-0.035384405 -0.020937506 0.091559738
-0.025853708 -0.020598631 0.091413021
-0.015823146 -0.020399006 0.091031685
-0.0060983179 -0.020166716 0.090900406
-0.093223155 -0.011070612 0.091128282
-0.084184393 -0.012208917 0.092106603
-0.074649245 -0.013531351 0.093714572
-0.064998642 -0.015168514 0.095057331
-0.055370383 -0.016819192 0.096342482
-0.045072999 -0.016795542 0.096105218
-0.034939028 -0.016556159 0.095766895
-0.024953946 -0.016143881 0.09560293
-0.014926569 -0.015851974 0.095300511
-0.0049161301 -0.015340172 0.095216244
0.0049850773 -0.014910151 0.095105201
0.015058932 -0.014437629 0.094974026
0.025044719 -0.01392405 0.094878227
0.034964938 -0.013414785 0.094857879
0.044872522 -0.013127482 0.094522625
0.054657955 -0.012807626 0.094176896
0.064804994 -0.012283515 0.093657523
0.070619524 -0.011187002 0.091885254
-0.10257245 -0.0034448951 0.091673486
-0.094850115 -0.0046404013 0.09307956
-0.085158378 -0.0052401973 0.095705889
-0.075850882 -0.0059650647 0.097859457
-0.067119248 -0.0080841677 0.09891957
-0.0585251 -0.0097449701 0.099682726
-0.045982316 -0.0045595695 0.094619945
-0.021370888 -0.0099151731 0.099871218
-0.014553627 -0.0095385546 0.099618748
-0.0051777414 -0.0093861688 0.099531792
0.0054679755 -0.0093280366 0.099346042
0.01518975 -0.0090280566 0.099163756
0.025361612 -0.0087241428 0.099072516
0.035448506 -0.0084897559 0.098904759
0.04494828 -0.0085598575 0.098783344
0.055088405 -0.0084930705 0.098489694
0.067020528 -0.0067786719 0.09729781
0.071928568 -0.0040532826 0.09365993
-0.10277881 0.0049047065 0.09223146
-0.095061757 0.0051165964 0.094288178
-0.085259631 0.0051556448 0.097097404
-0.076505475 0.0056847739 0.098821282
-0.069175743 0.0086432537 0.099510089
-0.0460421 0.0053251628 0.09497451
0.0057070255 0.0098233819 0.099855095
0.015662601 0.0091897119 0.099597968
0.025581039 0.0089963637 0.099393442
0.035498828 0.0088190781 0.099131308
0.045134135 0.0088014174 0.099081479
0.05546993 0.008518029 0.098931223
0.067368671 0.0067517082 0.097554356
0.071969613 0.0042586476 0.093745887
-0.10254303 0.011910204 0.09098357
-0.094457403 0.013036118 0.091996387
-0.084826455 0.014401301 0.093637876
-0.075158156 0.015396093 0.095606066
-0.065593146 0.016701004 0.097213745
-0.056259815 0.018284582 0.098334447
-0.04477901 0.017391488 0.09752091
-0.034753501 0.0179564 0.098027922
-0.024845075 0.017707881 0.097507536
-0.014805238 0.017360624 0.096995525
-0.0048552044 0.016988136 0.09646605
0.0051538707 0.016622072 0.09590932
0.015025409 0.016166201 0.095514484
0.025056498 0.015526836 0.095248833
0.034977648 0.014831873 0.0950666
0.044888597 0.014229994 0.094864592
0.054729979 0.01355577 0.094656765
0.0650521 0.012792641 0.094047353
0.07075154 0.011339717 0.092032313
-0.081856042 0.020838575 0.090737581
-0.073736116 0.021258548 0.091736652
-0.064597234 0.022200348 0.092817105
-0.054832939 0.023298137 0.094356023
-0.045713622 0.023390228 0.094363883
-0.035138987 0.022500925 0.093680479
-0.025214778 0.022084495 0.093157649
-0.015185081 0.021584934 0.092718937
-0.005354905 0.021208573 0.092155159
0.0039712237 0.02089826 0.091658928
0.013985918 0.020666316 0.091123812
0.022429431 0.020284818 0.090473041
-0.063145943 -0.011421506 0.10099638
-0.054210972 -0.012550124 0.10221582
-0.045958288 -0.012632255 0.10221985
-0.035309952 -0.012068739 0.10177489
-0.025147824 -0.011723381 0.10151271
-0.015135577 -0.011765709 0.10130606
-0.0053141019 -0.011464098 0.10130165
0.0049950699 -0.01115921 0.10117868
0.014985401 -0.010902666 0.10098121
0.024183393 -0.010932417 0.10064323
0.034803282 -0.010669433 0.10052757
0.044602562 -0.010500532 0.10058793
0.052721661 -0.010309535 0.1004222
-0.081444524 -0.0015197322 0.10051224
-0.073710345 -0.0032011447 0.10127787
-0.064737432 -0.0046403916 0.10270458
-0.054847907 -0.0050692805 0.10541929
-0.045377512 -0.0050923522 0.10550445
-0.035019021 -0.005233163 0.10475925
-0.024976261 -0.005102593 0.10446388
-0.014961193 -0.0051882006 0.10402271
-0.0049642739 -0.005048967 0.10372373
0.0050040605 -0.0049226969 0.10339778
0.015035632 -0.0049852729 0.10306849
0.025013095 -0.0047766012 0.10282395
0.034872204 -0.0046963729 0.10258582
0.044928648 -0.0044827545 0.10242245
0.054754931 -0.0042524212 0.10218804
0.064936839 -0.0038300159 0.10188384
0.070622221 -0.0025614202 0.10066467
-0.082030922 0.0037286244 0.10047071
-0.073990278 0.0046356386 0.10148237
-0.065009236 0.0050853677 0.10336396
-0.054928742 0.0051272623 0.10636014
-0.045373954 0.0051215584 0.10628077
-0.03503583 0.0050212978 0.1058118
-0.024960708 0.0050566252 0.10533718
-0.014860462 0.0050672744 0.10489812
